# .PCD v0.7 - Point Cloud Data file format
VERSION 0.7
FIELDS x y z
SIZE 4 4 4
TYPE F F F
COUNT 1 1 1
WIDTH 330
HEIGHT 1
VIEWPOINT 0 0 0 1 0 0 0
POINTS 330
DATA ascii
-0.033283096 4.5610223 -0.80334777
-0.023718633 4.5599556 -0.8033846
-0.014068335 4.5677838 -0.80457854
-0.0043155998 4.5795493 -0.80629051
0.0052636154 4.5764108 -0.80607188
0.015114237 4.5881162 -0.80778587
0.024723541 4.5859108 -0.80769807
0.034472894 4.5896239 -0.80838358
0.044075046 4.5873609 -0.80829704
0.053631347 4.5840759 -0.80808145
0.063272879 4.5837359 -0.80825371
0.072913826 4.5833669 -0.80842662
0.082674026 4.5859408 -0.80898798
0.09245266 4.5884838 -0.80955029
0.10276642 4.5994787 -0.77426529
0.10243382 4.5949602 -0.81063044
0.11255696 4.6009746 -0.77467829
-0.039613932 4.5921116 -0.78883839
0.11210848 4.5944715 -0.81080675
0.12283401 4.6113653 -0.77615315
-0.029997965 4.5821323 -0.78777599
0.12246624 4.6068263 -0.8126663
0.13295172 4.6177564 -0.77715755
-0.020386145 4.579071 -0.7875731
0.13212144 4.6052871 -0.81271565
0.14199118 4.6052818 -0.77592051
-0.010598969 4.5928497 -0.78946161
0.14053309 4.582932 -0.81004423
0.15163706 4.6036839 -0.77598214
-0.0010583699 4.583775 -0.78852177
0.14961377 4.573421 -0.80905676
0.16166516 4.6080022 -0.77675343
0.0084449463 4.5756645 -0.78770578
0.16071323 4.5955462 -0.81221712
0.17179017 4.6132793 -0.77764392
0.018184591 4.5814166 -0.78861368
0.17018552 4.5919132 -0.81200826
0.18137991 4.6106 -0.77758884
0.028218564 4.5980515 -0.79087687
0.17935404 4.5842957 -0.81128109
0.19162326 4.6168051 -0.77860075
0.037931312 4.5987816 -0.79117131
0.18965979 4.5924735 -0.81263018
0.20236798 4.6289163 -0.78032446
0.047442008 4.5925388 -0.790604
0.19855617 4.5818343 -0.81151378
0.21126668 4.617239 -0.77920544
0.057468172 4.6031284 -0.79213297
0.20882948 4.5889597 -0.8127358
0.22217481 4.6302733 -0.78105044
0.06716986 4.6027775 -0.79230642
0.21873371 4.5911121 -0.81330943
0.23178668 4.6274438 -0.78100026
0.07656011 4.5944643 -0.79149234
0.22753526 4.5803924 -0.81219333
0.24084802 4.6186523 -0.78023767
0.086484775 4.6000056 -0.79240829
0.23689641 4.5765615 -0.81198716
0.25022772 4.6137896 -0.77994996
0.09604162 4.5965919 -0.79221272
0.2472495 4.5835609 -0.81321353
0.25862679 4.5990176 -0.77847457
0.2566025 4.5796719 -0.81300867
0.26929721 4.6079364 -0.7798515
0.26662117 4.5826616 -0.8137157
0.27870861 4.6039786 -0.77968323
0.27746904 4.5935097 -0.81546772
0.28809839 4.5999937 -0.77951515
0.28745034 4.5954471 -0.81604671
0.29736003 4.5949945 -0.77922863
0.14412981 4.5890055 -0.79247916
0.29690936 4.5924234 -0.81597543
0.30824888 4.6047688 -0.78072935
0.15372384 4.5874014 -0.79253513
0.30690455 4.5943003 -0.81655705
0.31738687 4.5987248 -0.78032506
0.16364025 4.5907183 -0.79320979
0.31612265 4.5892506 -0.81622595
0.32730693 4.5995564 -0.7807548
0.17302604 4.5860848 -0.79289484
0.32461604 4.5782657 -0.81510985
0.33842775 4.6102138 -0.78237885
0.1840411 4.6041861 -0.79543245
0.33399865 4.5751328 -0.81503975
0.3472929 4.6021113 -0.78173691
0.19269481 4.5895987 -0.79387712
0.34385413 4.5759082 -0.81549275
0.35799256 4.6087594 -0.78288627
0.20227505 4.5878477 -0.79393524
0.35421854 4.5805874 -0.81647038
0.36796546 4.6094646 -0.78331983
0.21208979 4.5890346 -0.79436684
0.36333361 4.5754013 -0.81614065
0.37755308 4.6071868 -0.78339636
0.22208284 4.5921683 -0.79504812
0.37333986 4.5770669 -0.81672645
0.38672644 4.6019273 -0.78311443
0.23122625 4.5853872 -0.79448605
0.38335946 4.578702 -0.81731415
0.39669758 4.6025429 -0.7835511
0.24114172 4.587472 -0.79504454
0.39298037 4.5773587 -0.81750947
0.40667513 4.603127 -0.78398752
0.25032836 4.581624 -0.7946074
0.40217748 4.5730429 -0.81731188
0.41623047 4.6007328 -0.78406632
0.2602497 4.5836492 -0.79516733
0.41278401 4.5785093 -0.81842732
0.42431131 4.5884905 -0.78294754
0.27018642 4.5856433 -0.79572821
0.42196697 4.5741358 -0.81823081
0.43441272 4.5899687 -0.78350532
0.27942371 4.5806985 -0.79541695
0.43157357 4.5726762 -0.81842864
0.44483387 4.5933781 -0.78430438
0.28936931 4.5826325 -0.79597938
0.44178534 4.5751052 -0.81915212
0.45496923 4.5947909 -0.78486526
0.30008847 4.5914397 -0.79741579
0.4512403 4.5726051 -0.81922054
0.46479976 4.5942121 -0.78518641
0.30986214 4.5913367 -0.7977308
0.46258205 4.5818214 -0.82086611
0.47576219 4.6004601 -0.78634965
0.31952482 4.5902185 -0.79792154
0.47237384 4.5812149 -0.82119918
0.48627526 4.6037326 -0.78715354
0.328949 4.5871005 -0.79786301
0.48315179 4.5864449 -0.82232201
0.49563932 4.6001215 -0.78711641
0.33907935 4.5898643 -0.7985552
0.49262857 4.5838213 -0.82239377
0.50481719 4.5955048 -0.7869606
0.34738123 4.5778275 -0.7973724
0.50481629 4.5967951 -0.82457316
0.51535857 4.5986819 -0.78776717
0.35573894 4.5667539 -0.79631406
0.51379961 4.5911779 -0.82425028
0.52415991 4.5920539 -0.7873708
0.36739513 4.5812349 -0.79850912
0.52433866 4.5943151 -0.82511485
0.53436196 4.5932136 -0.7879377
0.375835 4.5710931 -0.79757649
0.5349012 4.5974183 -0.8259806
0.54384673 4.5904374 -0.78802419
0.38530007 4.5687914 -0.79764551
0.54567075 4.6014605 -0.82697999
0.55591446 4.6012859 -0.78979999
0.39461607 4.5654793 -0.79758954
0.55517519 4.5986495 -0.82705557
0.56466806 4.5958109 -0.8271327
0.57376105 4.5897312 -0.78925169
0.4130547 4.5577908 -0.79735422
0.5741483 4.5929437 -0.82720912
0.58477718 4.5946259 -0.7903074
0.4232029 4.5602837 -0.79805207
0.58497471 4.5968518 -0.82821268
0.59365797 4.5887804 -0.79003417
0.43141592 4.5499949 -0.79711896
0.59543765 4.5987816 -0.82895207
0.60351068 4.5877719 -0.7903657
0.44263762 4.5592895 -0.7986986
0.60291868 4.5861139 -0.82770801
0.61437958 4.5915904 -0.79130304
0.45298171 4.5626655 -0.79952627
0.61519748 4.5967164 -0.82964027
0.625278 4.5953732 -0.79224265
0.46398938 4.5699253 -0.80085766
0.62054944 4.5743055 -0.82707095
0.63641465 4.6000872 -0.79330361
0.47374642 4.5693164 -0.80118418
0.62952787 4.5693345 -0.82688498
0.64716142 4.6028242 -0.79412401
0.48515815 4.5784597 -0.80277061
0.642506 4.582736 -0.82921982
0.65599573 4.5968041 -0.79385406
0.49477947 4.5768089 -0.80297315
0.65127784 4.5767336 -0.82890236
0.66632676 4.5975389 -0.79443407
0.50525206 4.5800138 -0.80380595
0.66284883 4.5832777 -0.83031213
0.67666835 4.5982389 -0.79501414
0.51609725 4.5851364 -0.80489349
0.67446649 4.5897813 -0.83172262
0.68679655 4.59794 -0.79547489
0.52626967 4.5863194 -0.80547631
0.68367088 4.5856214 -0.83167362
0.69715613 4.5985742 -0.7960577
0.53681558 4.5894203 -0.80631387
0.6928575 4.5814342 -0.83162487
0.70821661 4.6020713 -0.79700577
0.54665279 4.5885859 -0.80664706
0.72186673 4.6161442 -0.7992934
0.55779362 4.594542 -0.80786514
0.73160136 4.6137729 -0.79951477
0.56935418 4.6024075 -0.80933785
0.7268917 4.5956721 -0.83520842
0.74156719 4.6123352 -0.79985923
0.5790472 4.6004982 -0.80954766
0.73560685 4.5894365 -0.83489645
0.75153059 4.6108656 -0.80020344
0.58951503 4.6024518 -0.81026459
0.7447747 4.5850978 -0.83484995
0.76027012 4.6045556 -0.79993862
0.59425604 4.5761833 -0.80730993
0.75441039 4.582655 -0.83507121
0.7682361 4.5953393 -0.79930735
0.6056779 4.5829411 -0.80866015
0.76552272 4.5859413 -0.83609414
0.77790582 4.5928268 -0.79953086
0.61633182 4.5857763 -0.8095057
0.77591145 4.5863132 -0.83671772
0.78680813 4.5874062 -0.79938912
0.62535286 4.5808158 -0.80933726
0.78883904 4.5962315 -0.838678
0.80004245 4.5982609 -0.80132473
0.63476861 4.5777678 -0.80942285
0.79927689 4.5965266 -0.83930314
0.80998039 4.5966096 -0.8016727
0.64481181 4.5775986 -0.80989009
0.8086881 4.5929613 -0.83939576
0.81676859 4.5834403 -0.80055356
0.65572321 4.5812697 -0.81086653
0.81808573 4.5893674 -0.83948779
0.82984865 4.5932131 -0.80237079
0.66556966 4.5800672 -0.81120849
0.83355772 4.6077113 -0.84266007
0.84380144 4.6058025 -0.80455917
0.67607969 4.5817327 -0.81193191
0.84085315 4.5964103 -0.84168303
0.85295933 4.6011505 -0.80454284
0.68683189 4.5843306 -0.81278467
0.84971064 4.5908136 -0.84150952
0.86675549 4.6126881 -0.80661309
0.69783437 4.5878577 -0.81376511
0.85963666 4.5890036 -0.84187305
0.87315452 4.5984378 -0.80537152
0.7088654 4.5913467 -0.81474781
0.87066442 4.5909696 -0.84277338
0.88534975 4.6041765 -0.80670774
0.7210927 4.599617 -0.81636858
0.88031667 4.5881433 -0.84300393
0.89080518 4.5870366 -0.80509746
0.73172134 4.6011 -0.81709826
0.88939649 4.5833874 -0.84296668
0.90244746 4.5908036 -0.80618924
0.74140841 4.5986977 -0.81731951
0.89959514 4.5824018 -0.84346664
0.91296715 4.5907316 -0.80679137
0.75423902 4.6087689 -0.81920052
0.91094887 4.5851769 -0.84450555
0.92262012 4.5877781 -0.8070249
0.76247734 4.6005321 -0.81865805
0.92058277 4.5822272 -0.84473872
0.93373579 4.5895343 -0.80787456
0.77141631 4.5951552 -0.8184979
0.93079489 4.5811419 -0.84524119
0.94606054 4.5950394 -0.80921841
0.78208941 4.5964699 -0.81923324
0.93952596 4.5752969 -0.84507143
0.95542675 4.5910397 -0.80933142
0.78998291 4.5872035 -0.81856191
0.95152545 4.5798163 -0.84638381
0.96447438 4.5860672 -0.80932069
0.8011685 4.5903702 -0.81955492
0.96053737 4.5748568 -0.84635013
0.97655958 4.5905089 -0.81054533
0.80874085 4.5800996 -0.81875551
0.97044319 4.5726995 -0.8467204
0.98621124 4.5873623 -0.81078327
0.82309574 4.5946765 -0.82128751
0.98281151 4.5780449 -0.84817171
0.99242586 4.5738215 -0.80966306
0.82877374 4.5776644 -0.819592
0.99460047 4.5814629 -0.84935427
1.0051711 4.5800381 -0.81113756
0.8448382 4.5978775 -0.82289672
1.00736 4.5876565 -0.85094345
1.0138384 4.5739841 -0.81100559
0.85288382 4.5894074 -0.82235539
1.018267 4.5881691 -0.85172361
1.0263215 4.5791764 -0.81235945
0.86308199 4.5885425 -0.82284153
1.032384 4.5980225 -0.8538577
1.0401382 4.5880747 -0.81421065
0.87467122 4.5924044 -0.82397115
1.0423772 4.5956407 -0.85423577
1.0540185 4.5969186 -0.81606317
0.88489044 4.5914688 -0.8244583
1.0578979 4.6091361 -0.85691392
1.0600721 4.5832367 -0.81494355
0.88972807 4.5724449 -0.8225044
1.0676022 4.6057386 -0.85715866
0.90791273 4.5980458 -0.82659465
1.07829 4.6051126 -0.85781062
0.91614151 4.5903635 -0.82618511
1.0886495 4.6035199 -0.85832751
0.92696059 4.5911903 -0.82693338
1.0973258 4.5972338 -0.85816813
1.1093707 4.6002302 -0.85936469
1.1224728 4.6059732 -0.86097038
0.95499068 4.5792766 -0.82725239
1.1290585 4.5940218 -0.85999644
0.96491033 4.5771389 -0.82761741
1.1442857 4.6052485 -0.86242044
0.97543973 4.5768561 -0.82824063
1.1553814 4.6052942 -0.86321568
0.98040766 4.5595794 -0.82654023
1.1608267 4.5904946 -0.86183369
0.99652117 4.5761843 -0.82949197
1.1758218 4.6006484 -0.8641268
1.0048665 4.5692153 -0.82921278
1.1854981 4.5968919 -0.86437953
1.0192219 4.5800695 -0.8313936
1.1998732 4.6050925 -0.86640459
1.027235 4.5721006 -0.83098614
1.212484 4.6086302 -0.86775035
1.042009 4.5837946 -0.83330047
1.2210803 4.6020021 -0.86759651
1.0565366 4.5944901 -0.83548695
1.0688331 4.5985799 -0.83676934
1.0801687 4.5998211 -0.83766282
1.0921923 4.6028895 -0.83881843
1.1039073 4.6049814 -0.83984447
1.1091679 4.5893412 -0.83840191
1.1294686 4.6146197 -0.84268284
1.1343375 4.5979991 -0.84111047
1.1488998 4.6073613 -0.84318364
1.1578946 4.6018333 -0.84317398
1.1736121 4.6138697 -0.84564149
