# .PCD v0.7 - Point Cloud Data file format
VERSION 0.7
FIELDS x y z
SIZE 4 4 4
TYPE F F F
COUNT 1 1 1
WIDTH 130
HEIGHT 1
VIEWPOINT 0 0 0 1 0 0 0
POINTS 130
DATA ascii
-1.5299752 4.5157137 -0.94676256
-1.5188512 4.5166202 -0.9461838
-1.5039327 4.5094566 -0.94417739
-1.4966283 4.5183153 -0.94502914
-1.4855295 4.519104 -0.94445252
-1.4740243 4.5189586 -0.94371855
-1.4629453 4.5196691 -0.94314337
-1.4514658 4.5194416 -0.94240987
-1.4420309 4.5236726 -0.94247174
-1.4297593 4.5215669 -0.94142258
-1.5824338 4.4657521 -0.96231711
-1.4143089 4.512197 -0.93910372
-1.569622 4.4633288 -0.96105337
-1.4013149 4.508183 -0.9377383
-1.5625631 4.472333 -0.96192455
-1.3970515 4.5240235 -0.93986869
-1.5506508 4.4715972 -0.96099138
-1.3793622 4.5090637 -0.93659711
-1.5465837 4.4867539 -0.96301317
-1.3726867 4.5194263 -0.93777621
-1.5346582 4.4859533 -0.96208167
-1.3570623 4.5088844 -0.93530059
-1.5304819 4.5010924 -0.96410584
-1.5297987 4.5214176 -0.92744923
-1.3495799 4.5173759 -0.93616307
-1.5211061 4.5055628 -0.96416116
-1.5216324 4.5285645 -0.92796457
-1.3378634 4.5158324 -0.9352783
-1.5112921 4.5091143 -0.96405339
-1.5100585 4.5285425 -0.92725694
-1.3265467 4.5151591 -0.9345535
-1.4989419 4.5072837 -0.96296096
-1.4968185 4.5249004 -0.92593694
-1.3148701 4.5135326 -0.93367004
-1.4891288 4.5107651 -0.96285474
-1.483198 4.5203109 -0.92446566
-1.301723 4.5082068 -0.93215072
-1.4784755 4.5124259 -0.96242023
-1.4737605 4.5246401 -0.92452526
-1.2893606 4.5046606 -0.93094957
-1.4665854 4.5113635 -0.96149421
-1.4593729 4.518158 -0.92274904
-1.2796034 4.5074825 -0.9308629
-1.4555358 4.5120521 -0.96089709
-1.4495323 4.5215139 -0.92265725
-1.2669226 4.502933 -0.92950451
-1.4440875 4.5118032 -0.96013761
-1.2564528 4.5038476 -0.92910135
-1.4346781 4.5160108 -0.96019959
-1.2452698 4.5028868 -0.92838109
-1.4168105 4.5012751 -0.95681071
-1.2358847 4.5064912 -0.92845666
-1.4114269 4.5144196 -0.95851803
-1.2264882 4.510067 -0.9285332
-1.3980428 4.5094957 -0.95693839
-1.388769 4.5115576 -0.91776681
-1.2167301 4.5126905 -0.92845106
-1.390609 4.518086 -0.95782566
-1.3805332 4.5183191 -0.91829324
-1.2066201 4.5143595 -0.92821026
-1.378051 4.5148864 -0.95657575
-1.3683749 4.5159779 -0.91728663
-1.1947849 4.5113702 -0.92717516
-1.3694081 4.5207071 -0.95697212
-1.357403 4.5163202 -0.91674137
-1.1874257 4.5203772 -0.9282105
-1.354959 4.5128837 -0.95490122
-1.3533487 4.5330153 -0.91895616
-1.1783255 4.5247331 -0.92844987
-1.3432484 4.5113664 -0.95398283
-1.3450136 4.5396843 -0.91948557
-1.1661825 4.5207071 -0.92725718
-1.3307997 4.5079856 -0.95273626
-1.3392968 4.552722 -0.92108893
-1.154407 4.5175672 -0.92622375
-1.319514 4.5072913 -0.95198333
-1.3297579 4.556613 -0.92116058
-1.145638 4.5227542 -0.92662513
-1.311241 4.5138574 -0.95254707
-1.3179717 4.5549827 -0.920313
-1.133569 4.5186062 -0.92543399
-1.3021951 4.5185757 -0.95278406
-1.3028799 4.545064 -0.91808498
-1.1199092 4.5097513 -0.92344582
-1.2920259 4.5205216 -0.95252669
-1.2893276 4.5387511 -0.9164716
-1.1143683 4.5241723 -0.92544413
-1.2800267 4.5178552 -0.95144784
-1.2765551 4.5342221 -0.91516531
-1.1017247 4.5180373 -0.92393517
-1.2687805 4.5169787 -0.95069861
-1.2670723 4.5379224 -0.91524041
-1.0926079 4.5221391 -0.92418158
-1.2586328 4.5188169 -0.95044434
-1.2565027 4.5388308 -0.91485608
-1.0850444 4.5308952 -0.92522633
-1.2481271 4.5197029 -0.95002544
-1.2470062 4.5424705 -0.91493285
-1.2344338 4.5122705 -0.9481256
-1.2374991 4.5460806 -0.91501045
-1.2278373 4.5232115 -0.94951987
-1.225179 4.5422683 -0.91385996
-1.218042 4.5258389 -0.94943333
-1.2156719 4.5458126 -0.913939
-1.2058165 4.5219712 -0.94819438
-1.204087 4.5437708 -0.91309774
-1.1946564 4.5208311 -0.9474498
-1.1870598 4.5268512 -0.90979874
-1.182832 4.5178018 -0.94637656
-1.1803095 4.5377049 -0.91110969
-1.1737398 4.5221405 -0.94662213
-1.1651053 4.5253153 -0.90857899
-1.1589347 4.510684 -0.94406593
-1.151985 4.5184436 -0.90697145
-1.1508559 4.5177388 -0.94480801
-1.1425499 4.5217648 -0.90705454
-1.1414258 4.5210547 -0.94489121
-1.1324507 4.5231919 -0.90683115
-1.1280669 4.5131731 -0.94299603
-1.1230007 4.5264544 -0.9069159
-1.1170321 4.5117626 -0.94225574
-1.118046 4.5427661 -0.90915406
-1.1063371 4.5112448 -0.94168067
-1.1094925 4.54879 -0.9097023
-1.0947 4.5078897 -0.94061184
-1.100281 4.552918 -0.90994382
-1.0799414 4.4951472 -0.93789279
-1.0819726 4.5298414 -0.90572405
-1.0699559 4.496377 -0.93764913
-1.0725024 4.5329494 -0.90581286
