# .PCD v0.7 - Point Cloud Data file format
VERSION 0.7
FIELDS x y z
SIZE 4 4 4
TYPE F F F
COUNT 1 1 1
WIDTH 108
HEIGHT 1
VIEWPOINT 0 0 0 1 0 0 0
POINTS 108
DATA ascii
-1.675568 4.5491242 -0.83418596
-1.6669501 4.5558062 -0.83447969
-1.6533083 4.5527592 -0.83341873
-1.6478295 4.5655632 -0.83457744
-1.6346546 4.5633187 -0.83364093
-1.6188316 4.5557046 -0.83196557
-1.6075051 4.5569005 -0.83152437
-1.5957437 4.5571671 -0.83096027
-1.5796149 4.5484881 -0.829162
-1.5652953 4.5433054 -0.8278594
-1.5527513 4.5416384 -0.82705081
-1.542381 4.5443954 -0.82685888
-1.5332893 4.5498047 -0.82703948
-1.5207833 4.5480123 -0.82623303
-1.5104097 4.5506639 -0.82604361
-1.4950067 4.5424871 -0.82437432
-1.4813313 4.5378485 -0.82319915
-1.4685242 4.5349607 -0.82227135
-1.4557493 4.532023 -0.82134432
-1.619833 4.5179238 -0.80758309
-1.4446356 4.5326548 -0.8209126
-1.6063584 4.5147009 -0.80657351
-1.4355568 4.5377769 -0.82109869
-1.5982666 4.5220733 -0.80697727
-1.4252532 4.5401525 -0.82091558
-1.5870434 4.5232034 -0.80655885
-1.4165461 4.5461268 -0.82122743
-1.5731857 4.5189538 -0.80543369
-1.4066242 4.5493484 -0.82117009
-1.5676817 4.5315857 -0.80654669
-1.3966945 4.5525389 -0.82111269
-1.5512435 4.521893 -0.80471742
-1.3851933 4.5520501 -0.82056171
-1.5396318 4.5219646 -0.80418432
-1.3702122 4.5433021 -0.81889862
-1.525457 4.5166221 -0.80294514
-1.3626236 4.5518632 -0.81958616
-1.5194345 4.5282598 -0.80394322
-1.3519318 4.5530844 -0.81928456
-1.5074207 4.527317 -0.80329359
-1.3382044 4.546936 -0.81799352
-1.4992162 4.5344238 -0.80370545
-1.3271669 4.5471573 -0.81757015
-1.4897261 4.5388079 -0.8037647
-1.3153914 4.5455027 -0.81689906
-1.4785594 4.5395555 -0.80335319
-1.3051252 4.5474863 -0.81672454
-1.4657509 4.5366507 -0.80247188
-1.296701 4.5540419 -0.81717002
-1.4550235 4.5382199 -0.80217981
-1.2860531 4.5550413 -0.81687295
-1.4447069 4.5406575 -0.80200744
-1.2757733 4.5569286 -0.81670094
-1.4347932 4.5439696 -0.80195296
-1.2636924 4.5541596 -0.81590998
-1.4260764 4.5499735 -0.80225325
-1.2505665 4.5485687 -0.81474674
-1.4141446 4.5486789 -0.80161047
-1.2378396 4.5438547 -0.8137092
-1.4006474 4.5436978 -0.80049729
-1.2279686 4.546515 -0.81366313
-1.3907357 4.5468698 -0.80044597
-1.218092 4.5491433 -0.81361896
-1.2082111 4.5517411 -0.81357455
-1.1979808 4.5533762 -0.81340754
-1.190475 4.5624342 -0.81423402
-1.1778597 4.5574808 -0.81319922
-1.3327212 4.5420713 -0.79760504
-1.1652857 4.5524788 -0.81216586
-1.3239603 4.5477862 -0.79791284
-1.1557392 4.5558457 -0.81224978
-1.3136805 4.5497966 -0.79774892
-1.1442089 4.553566 -0.81158924
-1.3030287 4.5508528 -0.79746854
-1.137269 4.5643663 -0.81266856
-1.2912775 4.5491066 -0.79683322
-1.1221892 4.5517006 -0.81064343
-1.2817415 4.5528579 -0.79690802
-1.1126457 4.554935 -0.81073046
-1.2718307 4.555655 -0.79686546
-1.1005511 4.5506215 -0.80982387
-1.2615545 4.5574961 -0.79670644
-1.0903808 4.5519094 -0.80966401
-1.2509221 4.5583758 -0.7964288
-1.0811481 4.5559907 -0.80987692
-1.2410027 4.5610771 -0.79638863
-1.0700459 4.5543866 -0.80934536
-1.2317803 4.5656047 -0.79658604
-1.0607994 4.5584073 -0.80956089
-1.2190582 4.5608058 -0.79560149
-1.0469897 4.5482292 -0.80791032
-1.2098308 4.5652671 -0.79580045
-1.2009298 4.5706344 -0.79611778
-1.1896281 4.5694456 -0.79560888
-1.1780069 4.5672832 -0.79498106
-1.1654066 4.5622749 -0.79399931
-1.1535103 4.5590901 -0.79325503
-1.1409879 4.5539885 -0.79227412
-1.1265525 4.543211 -0.79058212
-1.1167104 4.5455217 -0.79054976
-1.1059043 4.5449815 -0.79016221
-1.097014 4.5500503 -0.79048741
-1.0874736 4.5532112 -0.7905761
-1.0779228 4.5563412 -0.79066563
-1.0708301 4.5669947 -0.79170495
-1.0615426 4.5710201 -0.79191518
-1.0498209 4.567452 -0.79117692
-1.0432233 4.5799346 -0.7924571
