# .PCD v0.7 - Point Cloud Data file format
VERSION 0.7
FIELDS x y z
SIZE 4 4 4
TYPE F F F
COUNT 1 1 1
WIDTH 168
HEIGHT 1
VIEWPOINT 0 0 0 1 0 0 0
POINTS 168
DATA ascii
0.6393556 4.5828347 -0.94611192
0.6592406 4.5814357 -0.94704366
0.66885859 4.579247 -0.94725871
0.67847002 4.5770297 -0.94747436
0.68874723 4.577662 -0.94819486
0.69653547 4.5677099 -0.94706666
0.70795226 4.5730767 -0.94862938
0.71801072 4.5726557 -0.94918478
0.72618425 4.5645456 -0.94839215
0.73622751 4.5640664 -0.94894862
0.7448231 4.5578227 -0.94849372
0.75338906 4.5515537 -0.94803894
0.76514411 4.5576658 -0.94977713
0.62223566 4.5836539 -0.92626178
0.77919966 4.5723143 -0.95303655
0.63227826 4.5835085 -0.92679846
0.7900551 4.574523 -0.95410323
0.64485437 4.5948987 -0.92928159
0.79990697 4.5728874 -0.9544965
0.65237802 4.5831218 -0.92787433
0.81131196 4.5769262 -0.95590389
0.66243613 4.58288 -0.92841351
0.82222486 4.5790257 -0.95697427
0.65509653 4.5488925 -0.95985687
0.67491364 4.5931888 -0.93074024
0.82918119 4.5668483 -0.95551062
0.66592956 4.5524764 -0.96111119
0.6827898 4.5832629 -0.92965686
0.84143251 4.5736275 -0.95742774
0.67612398 4.5531464 -0.96184552
0.69061011 4.5733185 -0.92857385
0.84912741 4.5642509 -0.95647156
0.68700409 4.5566578 -0.96310222
0.70203125 4.5787153 -0.93009102
0.85814208 4.5595913 -0.95635986
0.69814062 4.5610909 -0.96453488
0.71349192 4.5840712 -0.9316107
0.86741239 4.555851 -0.95641923
0.70423025 4.5444245 -0.96214414
0.71937144 4.5663834 -0.92922616
0.87750816 4.5549192 -0.95698607
0.7123298 4.5363588 -0.96131718
0.72823232 4.5611401 -0.92895651
0.88788974 4.5548997 -0.95772374
0.72251838 4.5368762 -0.96205497
0.74042916 4.5692701 -0.93096614
0.89742273 4.5520144 -0.95795357
0.73247737 4.5364051 -0.96262085
0.75098181 4.5706601 -0.93183875
0.90867633 4.5547557 -0.95920181
0.7397716 4.5254045 -0.96127152
0.76105934 4.5701041 -0.93238556
0.92082977 4.5602818 -0.96096039
0.75068891 4.5286927 -0.96253419
0.77039349 4.5666528 -0.93244421
0.93126029 4.5601182 -0.96170223
0.78147614 4.56985 -0.93364477
0.94080925 4.5571017 -0.9619354
0.79182243 4.5701504 -0.93435729
0.95214605 4.5596881 -0.9631896
0.80243546 4.5713692 -0.93523395
0.96260124 4.5594215 -0.96393418
0.81280285 4.5716009 -0.93594849
0.97214645 4.5563097 -0.96416962
0.80802298 4.5531096 -0.97043848
0.82528734 4.5794044 -0.93797052
0.98168212 4.5531688 -0.96440554
0.81597334 4.5447741 -0.96961534
0.83409846 4.5738611 -0.93770707
0.99245304 4.5537386 -0.96532309
0.82281715 4.5326271 -0.96809316
0.84396142 4.5720906 -0.9380976
1.0016671 4.5496016 -0.96538973
0.83604431 4.5432019 -0.97076344
0.85490942 4.5740819 -0.93914402
1.0140347 4.5547676 -0.96716034
0.84744269 4.5470996 -0.9722122
0.86725289 4.5807724 -0.94100869
1.0248442 4.5552268 -0.96808112
0.86134261 4.5594668 -0.97523618
0.87242043 4.5628071 -0.93861854
1.0340527 4.5509949 -0.96815002
0.88282204 4.5628071 -0.93933892
1.0432454 4.5467343 -0.96822011
0.88266885 4.5613794 -0.9770925
0.89238077 4.5599394 -0.93956888
1.0550493 4.54988 -0.9696542
0.8930704 4.5613384 -0.97784793
0.90450895 4.5655375 -0.94127536
1.0632392 4.5427747 -0.9692136
0.90462369 4.5650315 -0.97930408
0.91320819 4.5597744 -0.94101512
1.0730664 4.5402832 -0.96962535
0.91187501 4.5545659 -0.97813463
0.9303565 4.5813093 -0.94551289
1.0838978 4.5405383 -0.97055125
0.92403084 4.560071 -0.9799428
0.94115132 4.5820613 -0.9464035
1.0957607 4.5435314 -0.97199094
0.93210471 4.5523782 -0.97929883
0.95434445 4.5902991 -0.94860864
1.1076523 4.5464807 -0.97343218
0.94252068 4.5521731 -0.98005831
0.95947272 4.5731215 -0.94638145
1.1230259 4.5586138 -0.97658587
0.95024091 4.5434961 -0.97923923
0.97361773 4.5840969 -0.94908202
1.1350019 4.5614643 -0.97802985
0.96125251 4.5451045 -0.98035061
0.97864038 4.5668888 -0.94685376
1.1449014 4.5587473 -0.97844911
0.97044736 4.54106 -0.98040986
0.98882943 4.5656018 -0.94741964
1.1562099 4.5596776 -0.97955453
0.9842605 4.5510092 -0.98310375
0.99714452 4.5586681 -0.94699919
1.1636134 4.5504646 -0.97877455
0.9940899 4.5487638 -0.98351586
1.0079497 4.5591903 -0.94789529
1.1731284 4.5467405 -0.97902381
1.004545 4.5483532 -0.98428082
1.0203583 4.5643444 -0.94961596
1.1848034 4.5484834 -0.98030341
1.0169129 4.5534997 -0.98610198
1.0328075 4.5694499 -0.95133841
1.2034343 4.5675716 -0.98484361
1.0286796 4.5567369 -0.98757231
1.0401173 4.5596037 -0.95042562
1.216677 4.5728645 -0.98681331
1.0401547 4.559001 -0.98886847
1.0526026 4.5646319 -0.95215046
1.2214419 4.5571113 -0.98483479
1.0516521 4.5612249 -0.99016583
1.0631529 4.5640364 -0.95288754
1.0641596 4.5661898 -0.99199367
1.074041 4.5643325 -0.95379138
1.0773709 4.5729618 -0.99417531
1.0882926 4.5738688 -0.95634639
1.0896312 4.5769053 -0.99582982
1.0975426 4.5694475 -0.95642626
1.1015878 4.5798774 -0.99730957
1.1064364 4.5640736 -0.95634127
1.1125524 4.5800338 -0.99826217
1.1208061 4.5734663 -0.95890164
1.1221571 4.5764637 -0.99850929
1.1314313 4.5726428 -0.95964611
1.1324415 4.574707 -0.99910975
1.1431115 4.5745506 -0.96088696
1.1420292 4.5710754 -0.99935794
1.1548132 4.5764155 -0.96212935
1.1480912 4.5582218 -0.99783993
1.1665386 4.5782394 -0.96337295
1.159045 4.558217 -0.99879503
1.175423 4.572669 -0.96329236
1.1685818 4.5545049 -0.9990443
1.1871696 4.5744157 -0.9645381
1.178107 4.5507636 -0.99929404
1.202208 4.5843716 -0.96727884
1.1897968 4.552484 -1.0006065
1.2118268 4.5805297 -0.96753252
1.205162 4.5632997 -1.0036918
1.2232771 4.5812306 -0.9686166
1.2143451 4.5585341 -1.0037676
1.2362306 4.5855455 -0.97036612
1.2272198 4.5628576 -1.0056167
1.234901 4.5543857 -1.0049841
1.2459302 4.5540791 -1.0059476
1.2539357 4.5464702 -1.0054935
