# .PCD v0.7 - Point Cloud Data file format
VERSION 0.7
FIELDS x y z
SIZE 4 4 4
TYPE F F F
COUNT 1 1 1
WIDTH 140
HEIGHT 1
VIEWPOINT 0 0 0 1 0 0 0
POINTS 140
DATA ascii
-0.71705139 4.5805717 -0.80473804
-0.70619684 4.5767493 -0.80410296
-0.69817889 4.5864925 -0.8052243
-0.68734246 4.5826054 -0.80459046
-0.67614549 4.5767355 -0.80370498
-0.66748214 4.5834813 -0.80445325
-0.65576476 4.5746212 -0.8031913
-0.64652014 4.5783868 -0.80356395
-0.63652802 4.5782256 -0.80343485
-0.62762052 4.5838871 -0.80406153
-0.61762375 4.5836663 -0.80393291
-0.60850191 4.5882974 -0.80443525
-0.59850419 4.5880165 -0.80430907
-0.58867961 4.5886812 -0.80430889
-0.73793072 4.5987711 -0.78846133
-0.57852739 4.5873594 -0.80405855
-0.72657102 4.5930738 -0.78761959
-0.56854928 4.5869842 -0.80393326
-0.71854419 4.6028771 -0.78869569
-0.55826068 4.58462 -0.80355763
-0.70559669 4.5893354 -0.78689688
-0.54939455 4.5910378 -0.804317
-0.69793278 4.6010299 -0.78821373
-0.53881192 4.5866508 -0.80368948
-0.68902248 4.6068687 -0.78881335
-0.52841133 4.5832095 -0.8031888
-0.67736953 4.5990515 -0.78773499
-0.51994377 4.5924883 -0.80432975
-0.66748756 4.5999599 -0.78773606
-0.50998706 4.591929 -0.80420935
-0.6572302 4.5988889 -0.78749776
-0.50172698 4.6031227 -0.80560505
-0.64384156 4.581203 -0.78522003
-0.49161085 4.6015239 -0.8053596
-0.63493311 4.5868888 -0.78582215
-0.48285726 4.6097217 -0.8063786
-0.62635213 4.5945024 -0.78666675
-0.47326672 4.6119947 -0.80664092
-0.61702609 4.5981851 -0.78703177
-0.46315128 4.6103063 -0.80639756
-0.60630018 4.5940204 -0.78643548
-0.45204344 4.6007137 -0.80514336
-0.59747356 4.6005783 -0.7871629
-0.44259423 4.6038809 -0.80553353
-0.5862754 4.5934114 -0.78620768
-0.43288931 4.6050491 -0.80567157
-0.57774895 4.6018724 -0.78717661
-0.4214294 4.5914125 -0.80391061
-0.56595695 4.5907178 -0.78574055
-0.41244644 4.5984302 -0.80480909
-0.55550098 4.5873623 -0.78526783
-0.40176138 4.5906358 -0.80380881
-0.5455361 4.5869141 -0.78515601
-0.39112779 4.5828052 -0.80280745
-0.53709757 4.5962453 -0.78624916
-0.38148862 4.583818 -0.802948
-0.52652085 4.591814 -0.78565764
-0.3712351 4.5788808 -0.80232871
-0.51656055 4.5912752 -0.78554785
-0.36229774 4.5867424 -0.80335873
-0.5071789 4.5946345 -0.78592128
-0.35140258 4.5748324 -0.80185103
-0.4973613 4.5950184 -0.78593349
-0.34150872 4.5727615 -0.80161273
-0.48740873 4.594388 -0.78582573
-0.33216843 4.5765872 -0.80213773
-0.47719574 4.5917602 -0.78547692
-0.32185525 4.5695157 -0.80126524
-0.46805042 4.596971 -0.78609526
-0.31267449 4.5752587 -0.8020457
-0.45862168 4.6001868 -0.7864728
-0.30281585 4.5730672 -0.80181074
-0.44580406 4.5767851 -0.78358877
-0.29429156 4.5876555 -0.80373788
-0.43825352 4.5947132 -0.78577936
-0.28448778 4.5863948 -0.80363131
-0.42810023 4.5919271 -0.78543425
-0.27519447 4.5920296 -0.8044163
-0.41901046 4.5979829 -0.78617692
-0.26525345 4.5887322 -0.80405545
-0.25533399 4.5854025 -0.80369604
-0.40007046 4.6040955 -0.78694093
-0.24537435 4.5810528 -0.80320919
-0.39004397 4.6021752 -0.78671855
-0.23633397 4.5915227 -0.80463505
-0.37878618 4.5883775 -0.78504395
-0.22672479 4.5930543 -0.80491507
-0.36963242 4.5942912 -0.78579104
-0.21705347 4.5935669 -0.8050679
-0.35966256 4.5922751 -0.78556991
-0.20713015 4.589098 -0.80458313
-0.34961373 4.589241 -0.78522885
-0.19794418 4.5994582 -0.80601418
-0.3386685 4.5762911 -0.78367412
-0.18851991 4.6058273 -0.80693519
-0.32913566 4.5781331 -0.7839396
-0.1788924 4.6082058 -0.80734777
-0.31942323 4.57797 -0.78396285
-0.16875601 4.597671 -0.8060981
-0.31095436 4.5926132 -0.78580868
-0.15854427 4.5831404 -0.80433679
-0.30128375 4.5933828 -0.78595555
-0.14871159 4.5774975 -0.80372584
-0.29107442 4.5871959 -0.78525168
-0.13876885 4.5668683 -0.80247509
-0.28038937 4.5740471 -0.78369832
-0.12910052 4.5641394 -0.80224943
-0.27134028 4.5826445 -0.78481901
-0.11949521 4.563364 -0.80227911
-0.261159 4.5753722 -0.78399503
-0.1101363 4.5744586 -0.80384797
-0.25231564 4.5878754 -0.78560513
-0.10067549 4.5835404 -0.80516148
-0.24136834 4.5676637 -0.78319788
-0.090965018 4.5787115 -0.80468154
-0.23259147 4.5820937 -0.78505397
-0.081513569 4.5946794 -0.80689633
-0.2223991 4.5727148 -0.78398728
-0.071837917 4.5947495 -0.80705953
-0.21258007 4.5692501 -0.78365135
-0.062105026 4.582891 -0.80568284
-0.20288192 4.567739 -0.78356075
-0.052470013 4.5848866 -0.80610347
-0.19393647 4.5820608 -0.78542125
-0.042828891 4.5818944 -0.80588251
-0.18390799 4.5735497 -0.78447759
-0.17429583 4.5739331 -0.78463238
-0.1649061 4.5802388 -0.78552139
-0.15527411 4.5805645 -0.78567791
-0.14573361 4.583837 -0.78620112
-0.1358656 4.5761666 -0.78538108
-0.12637059 4.5813661 -0.78615165
-0.11664732 4.5776052 -0.78582102
-0.10704188 4.5787768 -0.78610337
-0.0973664 4.5759492 -0.78589618
-0.087799072 4.580039 -0.78654778
-0.078098163 4.573184 -0.78585088
-0.068529308 4.5792003 -0.78674972
-0.058903761 4.5802255 -0.78703582
-0.049264632 4.5703044 -0.78597236
