# .PCD v0.7 - Point Cloud Data file format
VERSION 0.7
FIELDS x y z
SIZE 4 4 4
TYPE F F F
COUNT 1 1 1
WIDTH 1440
HEIGHT 1
VIEWPOINT 0 0 0 1 0 0 0
POINTS 1440
DATA ascii
-1.0590774 4.5186667 -0.88290167
-1.2192585 4.5299869 -0.83243263
-1.053879 4.5322165 -0.8465063
-1.2188814 4.5297608 -0.87168872
-1.0502511 4.5235877 -0.88328707
-1.2083907 4.5298028 -0.83199084
-1.0428815 4.5305276 -0.84591383
-1.2021133 4.5138226 -0.86878854
-1.0398904 4.5237756 -0.88293409
-1.1958086 4.5249343 -0.8308984
-1.0346067 4.5372953 -0.8465519
-1.1964805 4.5275059 -0.87042844
-1.0316361 4.5305276 -0.88361818
-1.0295104 4.5207911 -0.92136574
-1.183609 4.5209498 -0.82993597
-1.0242168 4.5374279 -0.84623462
-1.1842813 4.5235319 -0.86937368
-1.0215689 4.5315962 -0.88341355
-1.0206621 4.5256209 -0.92177773
-1.1717836 4.5178504 -0.82910442
-1.0156029 4.543201 -0.84673768
-1.1710992 4.5167236 -0.8678937
-1.0112097 4.5316892 -0.88306272
-1.0100318 4.5247722 -0.92123139
-1.1606615 4.5165734 -0.82853448
-1.0069618 4.5489511 -0.84724164
-1.1630118 4.5238295 -0.86854362
-1.0028963 4.5383644 -0.88374865
-1.0011598 4.5295472 -0.92164409
-1.1552337 4.5311275 -0.8301816
-0.99598598 4.5470958 -0.84665382
-1.1522244 4.5234585 -0.86805785
-0.99339783 4.5412335 -0.88384342
-0.98823857 4.5210776 -0.91982138
-1.1474099 4.5391359 -0.83091694
-0.98788768 4.554688 -0.84743261
-1.1378155 4.512785 -0.8660118
-0.98275089 4.5402846 -0.88334668
-0.97423804 4.5087781 -0.91735911
-1.1402029 4.5489955 -0.83191478
-0.97154671 4.5347281 -0.844248
-1.1280669 4.515131 -0.86595404
-0.97240001 4.5402489 -0.8829987
-0.96821702 4.5229092 -0.91937244
-1.1280669 4.5447936 -0.83095628
-0.96485722 4.5470061 -0.84571266
-1.1160419 4.510901 -0.86490226
-0.96401411 4.5468197 -0.88368833
-0.96072263 4.5322986 -0.92058814
-1.118223 4.5471077 -0.83091283
-0.95200485 4.5383482 -0.8441692
-1.1050172 4.5094342 -0.86427701
-0.95144922 4.5391259 -0.88215643
-0.93964648 4.495234 -0.9139694
-1.1080554 4.5484529 -0.83073854
-0.93893939 4.5286903 -0.84248877
-1.0987974 4.521986 -0.86578429
-0.93921411 4.5323343 -0.88077295
-0.93410879 4.5111876 -0.9163059
-1.0988394 4.5525846 -0.83095706
-0.93109626 4.5370822 -0.84340864
-1.0839738 4.509201 -0.86345553
-0.92892224 4.5321555 -0.8804273
-0.92334473 4.5090995 -0.91560388
-1.0896081 4.5566883 -0.83117652
-0.91998833 4.5340133 -0.84268725
-1.0755045 4.5151339 -0.86396945
-0.91944242 4.5347996 -0.88052702
-0.91768372 4.5250268 -0.917943
-1.0778736 4.5532336 -0.83035171
-0.90970498 4.5337691 -0.84237695
-1.0623517 4.5069461 -0.86235213
-0.9083668 4.5316973 -0.87973785
-0.90214366 4.5057611 -0.91436243
-1.0547106 4.4816532 -0.93460059
-1.0649379 4.5459676 -0.82900524
-0.90258008 4.5449538 -0.84371054
-1.0517186 4.5062337 -0.86187172
-0.89888918 4.5342789 -0.87983906
-1.0568745 4.5172477 -0.90282464
-0.89588755 4.5197439 -0.91638315
-1.0441639 4.4809275 -0.93402791
-1.055107 4.5480847 -0.82896525
-0.89202052 4.543695 -0.8432647
-1.0435364 4.5130191 -0.86253071
-0.88603646 4.5244236 -0.87801147
-1.0465299 4.5174603 -0.90245271
-0.88696581 4.5241899 -0.91680527
-1.0339351 4.4811034 -0.93362188
-1.0476918 4.5577245 -0.82997167
-0.88301694 4.5481424 -0.84364223
-1.0350196 4.5188403 -0.86304796
-0.87376428 4.5164299 -0.87648165
-1.0383042 4.5242243 -0.90315914
-0.87930447 4.5333781 -0.91802764
-1.0276253 4.4934568 -0.93536246
-1.0318428 4.5408854 -0.82731998
-0.87272394 4.5477753 -0.84333503
-1.0237875 4.5161462 -0.86228591
-0.86483926 4.5208182 -0.8768813
-1.0243686 4.513073 -0.90094006
-0.86957169 4.534915 -0.91797149
-1.0132024 4.4804149 -0.93264461
-1.0223335 4.5438452 -0.82741284
-0.86419737 4.5540833 -0.84398711
-1.0152439 4.5219131 -0.86280495
-0.85539466 4.5232677 -0.87698495
-1.0190932 4.5292039 -0.90318894
-0.85758638 4.5278273 -0.91647363
-1.0065424 4.4917822 -0.93422318
-1.0110527 4.5410938 -0.82672203
-0.84820294 4.5315981 -0.84052849
-1.0072607 4.5295482 -0.86360884
-0.84470552 4.5209007 -0.87634706
-1.0069865 4.5236287 -0.90189481
-0.84787571 4.5292969 -0.91641772
-0.99952853 4.5021949 -0.93563688
-1.0015426 4.5439906 -0.82681632
-0.84019244 4.5397568 -0.84145665
-0.99807858 4.5333776 -0.86384594
-0.83525997 4.5232882 -0.87645221
-0.99898583 4.5312314 -0.90275896
-0.83987319 4.5374303 -0.9174844
-0.99332845 4.5154219 -0.93754828
-0.99087119 4.5430636 -0.8263886
-0.83020282 4.5402122 -0.84128809
-0.98830754 4.535285 -0.86379766
-0.82532483 4.5237293 -0.876261
-0.98663956 4.5246339 -0.90131271
-0.8284499 4.5321445 -0.916309
-0.98505127 4.5220337 -0.93830407
-0.98249501 4.5496969 -0.82700753
-0.82165271 4.5464025 -0.84194446
-0.9799549 4.5419025 -0.86446357
-0.81587148 4.5260587 -0.87636769
-0.97803789 4.5302901 -0.90187037
-0.81873488 4.5335226 -0.91625524
-0.98014563 4.5399585 -0.94104493
-0.97267634 4.5515566 -0.82697332
-0.81094581 4.5439119 -0.84136677
-0.97185242 4.5494475 -0.86527264
-0.80640978 4.5283589 -0.8764751
-0.9663136 4.5255051 -0.90073335
-0.80878264 4.5339136 -0.91604245
-0.96980381 4.5399189 -0.94064474
-0.96341276 4.5552869 -0.82720202
-0.80235994 4.5500498 -0.84202379
-0.9600901 4.5446248 -0.86423028
-0.79671001 4.5296693 -0.87643468
-0.95824939 4.5330019 -0.90160096
-0.79813826 4.5313935 -0.91534841
-0.96169448 4.5474157 -0.94156909
-0.95109582 4.5485172 -0.82599151
-0.79351425 4.5552006 -0.84254539
-0.95057166 4.5473642 -0.8643285
-0.78976411 4.542491 -0.87817913
-0.94408262 4.5196052 -0.89907718
-0.78889263 4.5345974 -0.91561806
-0.94062495 4.5103765 -0.93471968
-0.94429576 4.5607615 -0.82739979
-0.78555232 4.5641837 -0.8436175
-0.94104379 4.5500755 -0.86442745
-0.77662498 4.5293112 -0.87590992
-0.93518871 4.5241928 -0.89948368
-0.77691615 4.5262456 -0.9139626
-0.93556905 4.5282211 -0.93746495
-0.77574778 4.5654287 -0.84359241
-0.93015927 4.5479946 -0.86381412
-0.76737726 4.532455 -0.87616909
-0.92762452 4.5335073 -0.9006623
-0.76700991 4.5265036 -0.9137522
-0.92099249 4.5128555 -0.93441904
-0.9200635 4.5479813 -0.82511121
-0.766828 4.5705047 -0.84411693
-0.91876131 4.543972 -0.86291695
-0.75701356 4.5307522 -0.87568516
-0.91787499 4.5351954 -0.90060794
-0.75821167 4.5315385 -0.91434467
-0.90811485 4.5031281 -0.93236673
-0.90841585 4.5429578 -0.82416463
-0.75766528 4.5745897 -0.84450471
-0.90766013 4.5408621 -0.8621614
-0.747756 4.5338383 -0.87594593
-0.90865237 4.5387568 -0.90086293
-0.74634153 4.5230722 -0.91268992
-0.90004522 4.510458 -0.9332943
-0.89994556 4.5493674 -0.82479036
-0.74762189 4.5747814 -0.84434414
-0.90180933 4.5568085 -0.86426032
-0.73784083 4.5340009 -0.87576079
-0.90019834 4.5451493 -0.90158176
-0.736462 4.5232325 -0.91248131
-0.89193821 4.517767 -0.93422306
-0.88704616 4.5394845 -0.8231883
-0.73737156 4.5739732 -0.84404659
-0.8876043 4.542172 -0.86179519
-0.73111147 4.5486202 -0.87780976
-0.88990629 4.5448442 -0.90122104
-0.72828424 4.5310731 -0.91355801
-0.88173425 4.5174394 -0.93382728
-0.87779593 4.5429616 -0.82342267
-0.72755176 4.575069 -0.84402418
-0.87988037 4.5513854 -0.86289799
-0.72179085 4.5516291 -0.87807333
-0.87911332 4.5425959 -0.90055215
-0.71880978 4.5331054 -0.91367185
-0.87103111 4.5151739 -0.93310118
-0.8703028 4.553122 -0.8245765
-0.71731746 4.5741959 -0.84372783
-0.86655444 4.5395255 -0.86086023
-0.70977777 4.542038 -0.87640142
-0.86859357 4.5412669 -0.90003824
-0.71036035 4.5399342 -0.91458952
-0.86462808 4.5290799 -0.93519223
-0.86000538 4.5527129 -0.8242873
-0.70668846 4.5713515 -0.8431561
-0.85680139 4.5410228 -0.86082232
-0.70006466 4.5430479 -0.87636817
-0.85958654 4.5456386 -0.90045166
-0.70085907 4.5419116 -0.91470528
-0.85466474 4.5296173 -0.93496525
-0.84823519 4.5465093 -0.82321227
-0.69748712 4.5752606 -0.84354961
-0.84384185 4.5300283 -0.85892808
-0.69155282 4.5498376 -0.87722993
-0.84908086 4.5442433 -0.89993894
-0.69135231 4.5438604 -0.91482174
-0.84445906 4.5291672 -0.93457353
-0.83724362 4.5431457 -0.82253075
-0.68470931 4.5616746 -0.84146482
-0.83656043 4.5410485 -0.86031926
-0.6814273 4.5488524 -0.87690032
-0.83761674 4.5389833 -0.89880764
-0.68519145 4.5622201 -0.91767287
-0.83572108 4.5344186 -0.9351759
-0.82555634 4.536859 -0.82145631
-0.67825311 4.5791163 -0.84378725
-0.8258487 4.5386119 -0.85971141
-0.67150807 4.5488048 -0.87672019
-0.8302846 4.5499721 -0.90030634
-0.67387432 4.5554123 -0.91634417
-0.82695889 4.5396452 -0.93578017
-0.81891602 4.5507388 -0.82313979
-0.6630637 4.5528193 -0.83991182
-0.81492102 4.5351791 -0.85896146
-0.6617853 4.549696 -0.87668991
-0.82027602 4.5503969 -0.90010488
-0.6610747 4.5408182 -0.913728
-0.8158012 4.5352764 -0.93472588
-0.80984628 4.5549774 -0.82351041
-0.65276271 4.5507679 -0.839481
-0.80378705 4.5307469 -0.8580693
-0.65055746 4.5427909 -0.875467
-0.81309104 4.5623064 -0.90175962
-0.65157127 4.5426459 -0.91384721
-0.80537885 4.533742 -0.93417108
-0.80168688 4.5630445 -0.82440823
-0.64489591 4.5613298 -0.84084177
-0.79361504 4.5301247 -0.85774887
-0.63993263 4.5387611 -0.87469089
-0.80120146 4.5549927 -0.90032244
-0.64280337 4.5483212 -0.91461134
-0.79589862 4.5360069 -0.93427968
-0.7921086 4.5653052 -0.82451856
-0.63276339 4.5494843 -0.83903247
-0.78253806 4.5256181 -0.85685647
-0.63097978 4.5434418 -0.87526023
-0.78982091 4.5495586 -0.89919388
-0.63291204 4.5481534 -0.91441059
-0.78298581 4.5238533 -0.93189955
-0.78161812 4.5636749 -0.82410419
-0.62250906 4.5473342 -0.83860314
-0.77307701 4.5278182 -0.85696626
-0.62290072 4.552959 -0.87657595
-0.77870744 4.5450463 -0.89822114
-0.62284827 4.5469832 -0.91404927
-0.77060521 4.5135703 -0.92985189
-0.77203792 4.5658736 -0.82421601
-0.61404103 4.5548944 -0.83955324
-0.76316303 4.5280604 -0.8567915
-0.61141622 4.5439701 -0.87505507
-0.7705279 4.5530071 -0.89926088
-0.61350209 4.5496659 -0.91433191
-0.76074159 4.5138092 -0.92962921
-0.7624504 4.5680432 -0.82432866
-0.60466325 4.5575581 -0.83981377
-0.75787634 4.5485344 -0.85962129
-0.60189962 4.5456491 -0.87517798
-0.76208723 4.5599833 -0.90014708
-0.60241032 4.5426044 -0.91300523
-0.75088245 4.5140162 -0.92940819
-0.75242245 4.5682497 -0.8241787
-0.59510332 4.5592184 -0.83993781
-0.74769312 4.5477629 -0.85930461
-0.59306109 4.5511947 -0.87590015
-0.74731046 4.5389891 -0.89654374
-0.59307134 4.5452261 -0.91329014
-0.740596 4.5122676 -0.92885506
-0.73832172 4.550036 -0.82152927
-0.58536935 4.5598726 -0.83992541
-0.73666483 4.5430927 -0.8584162
-0.58452785 4.5586638 -0.87692142
-0.73973924 4.5497589 -0.89805073
-0.5827167 4.5419841 -0.91260803
-0.73288989 4.522038 -0.93029654
-0.72835964 4.5501661 -0.82138085
-0.57596731 4.5624504 -0.84018838
-0.73074204 4.5615897 -0.86096495
-0.57282764 4.5475864 -0.87510276
-0.73168707 4.5585828 -0.8992492
-0.57287967 4.5416269 -0.91241074
-0.72365648 4.5250459 -0.93057573
-0.71944666 4.5551105 -0.82189035
-0.56687838 4.5669541 -0.84072912
-0.72012925 4.5587945 -0.86036372
-0.56297755 4.5471959 -0.87492961
-0.72108543 4.5557971 -0.89858955
-0.56272715 4.5392919 -0.9118911
-0.71503276 4.5309191 -0.93135369
-0.70927626 4.5542111 -0.82161146
-0.55585825 4.559701 -0.8396129
-0.7105664 4.5608053 -0.86047971
-0.55345178 4.548728 -0.87505615
-0.71030241 4.5520101 -0.89777541
-0.55338746 4.5417948 -0.91217875
-0.7053566 4.5319448 -0.93130255
-0.69952142 4.5552197 -0.82159603
-0.5451991 4.5543666 -0.83877373
-0.69856966 4.5511599 -0.85887671
-0.54220968 4.5394893 -0.87353778
-0.70076305 4.553988 -0.8978917
-0.54388022 4.5432949 -0.91230571
-0.69709319 4.5396972 -0.9324156
-0.68836939 4.5494013 -0.82065856
-0.5353421 4.5538878 -0.83862472
-0.68783367 4.5472889 -0.85813367
-0.53224933 4.5380273 -0.87321651
-0.68942249 4.5472293 -0.89661223
-0.53528506 4.5506158 -0.91340148
-0.68520677 4.5300436 -0.93053687
-0.6806041 4.56006 -0.82196331
-0.52579319 4.555337 -0.83875358
-0.67791295 4.5472608 -0.85796434
-0.5220027 4.5345774 -0.87259638
-0.67930758 4.5462399 -0.89626449
-0.52620143 4.5549884 -0.91401434
-0.67573726 4.5319433 -0.93065381
-0.67142254 4.5638962 -0.82234526
-0.51609308 4.555778 -0.83874553
-0.66625822 4.538466 -0.85650474
-0.51295596 4.5389185 -0.87317431
-0.66881835 4.5432792 -0.89560711
-0.51489395 4.5446949 -0.91220677
-0.66355884 4.520277 -0.92844284
-0.66260481 4.5696507 -0.82299221
-0.50452071 4.5434513 -0.8369379
-0.6563766 4.5383692 -0.85633719
-0.50259346 4.5344281 -0.87240541
-0.66006893 4.5490093 -0.89634645
-0.50451553 4.5402198 -0.9113667
-0.65354919 4.5192089 -0.92806125
-0.64849681 4.5481286 -0.81994712
-0.49937728 4.5751948 -0.84135962
-0.64912677 4.5518465 -0.85817862
-0.4957799 4.5543704 -0.87538171
-0.64866126 4.5411358 -0.89491415
-0.49585783 4.5474315 -0.91246712
-0.6422416 4.5113311 -0.92651522
-0.63951957 4.5528445 -0.82046312
-0.48921072 4.5726123 -0.84093797
-0.63718617 4.5410013 -0.85643256
-0.48430407 4.5419908 -0.87341571
-0.63749301 4.5341916 -0.89363706
-0.48592082 4.5458255 -0.91211367
-0.63172382 4.5072885 -0.92563546
-0.62906229 4.5497389 -0.81992459
-0.48149675 4.587656 -0.84301066
-0.62713236 4.5398407 -0.85612285
-0.47654521 4.556015 -0.87549603
-0.62800848 4.5359492 -0.89375758
-0.47370636 4.5275683 -0.90901303
-0.62196189 4.5070887 -0.92542231
-0.61952448 4.5514741 -0.82004654
-0.47012725 4.5761814 -0.84134376
-0.6178062 4.5425415 -0.85638773
-0.46462157 4.5396461 -0.87293053
-0.61780286 4.5337906 -0.89325666
-0.46529773 4.5366511 -0.9104377
-0.61256266 4.5087962 -0.92554247
-0.61015785 4.5541563 -0.82030141
-0.46218783 4.5901971 -0.84328032
-0.60882026 4.5471621 -0.85694206
-0.45524746 4.5418587 -0.87321359
-0.60884738 4.5384045 -0.89384574
-0.45606494 4.5398402 -0.91089463
-0.60368335 4.5133867 -0.92616272
-0.60129863 4.5597377 -0.82095325
-0.44962835 4.568831 -0.84022725
-0.59998357 4.552731 -0.85763979
-0.44485831 4.5361977 -0.87229741
-0.60176986 4.5536909 -0.89614403
-0.44656453 4.5410438 -0.91102839
-0.59409332 4.5140686 -0.92611825
-0.59360039 4.5721297 -0.82253146
-0.43806389 4.554297 -0.8381449
-0.59060931 4.5553503 -0.8579073
-0.4363482 4.5452185 -0.87363213
-0.58831781 4.5329571 -0.89269221
-0.43460396 4.5226369 -0.90792692
-0.58653516 4.5263767 -0.92807412
-0.58349323 4.5708265 -0.82226098
-0.43019506 4.5692129 -0.84022236
-0.58089095 4.5559912 -0.85788894
-0.42658901 4.5444021 -0.87346739
-0.57850331 4.5326171 -0.89250523
-0.42623389 4.5325918 -0.90951753
-0.5782423 4.5347791 -0.92936563
-0.57520247 4.5802426 -0.8234446
-0.42036495 4.5683751 -0.84008229
-0.57002664 4.5497704 -0.85686386
-0.41753823 4.5494461 -0.87420404
-0.56869525 4.5322461 -0.89231884
-0.41617146 4.5288067 -0.90884304
-0.56990206 4.5431609 -0.93065739
-0.56428319 4.5739899 -0.8225143
-0.40985948 4.561605 -0.83910894
-0.5603314 4.5503483 -0.85684645
-0.40789223 4.5495529 -0.87419081
-0.56082648 4.5435405 -0.8939997
-0.40795696 4.5406723 -0.91076052
-0.55975103 4.5408187 -0.9301157
-0.55577809 4.5823774 -0.82356864
-0.40017629 4.5616889 -0.83910894
-0.54968983 4.5450335 -0.8559655
-0.39957663 4.56142 -0.87598085
-0.54973286 4.5353127 -0.89257026
-0.39834332 4.5407491 -0.91073549
-0.55229604 4.5549908 -0.9324106
-0.54474515 4.5750785 -0.82250571
-0.39146811 4.5706015 -0.8403585
-0.54094267 4.5514121 -0.85681289
-0.38849983 4.5486951 -0.87401605
-0.53946954 4.5319247 -0.89191902
-0.38905573 4.5437403 -0.91119802
-0.54228634 4.553565 -0.93203819
-0.53284883 4.5618653 -0.82064927
-0.38102829 4.5637364 -0.83938736
-0.5292784 4.539187 -0.85492539
-0.37980756 4.5575604 -0.87535751
-0.53075278 4.5382648 -0.89282471
-0.37996304 4.548666 -0.91198504
-0.53274566 4.5550299 -0.93216646
-0.52252948 4.5584078 -0.82011664
-0.37114313 4.5617604 -0.83911079
-0.52022171 4.5435514 -0.85548592
-0.36984384 4.5546021 -0.87489617
-0.52140462 4.5406728 -0.89310884
-0.37114853 4.556509 -0.91325843
-0.52334774 4.5574417 -0.93246233
-0.51457143 4.5706029 -0.82170391
-0.36176777 4.5646806 -0.8395294
-0.51041442 4.5429974 -0.85532784
-0.36029565 4.5555458 -0.87503684
-0.51102298 4.5362163 -0.89230341
-0.36248699 4.5662918 -0.91485906
-0.51394033 4.5598245 -0.93275905
-0.50125098 4.5464897 -0.81838977
-0.35161024 4.559689 -0.83883679
-0.50218511 4.5531826 -0.85675454
-0.35036105 4.552525 -0.87457645
-0.50153202 4.5375886 -0.89243305
-0.35146782 4.5524802 -0.91256762
-0.50281149 4.5504718 -0.93105245
-0.49578446 4.5762911 -0.82236427
-0.34185761 4.5586081 -0.83870113
-0.49291942 4.5564885 -0.85717332
-0.33998591 4.5445518 -0.87336397
-0.49245766 4.5418649 -0.893031
-0.34332159 4.5681014 -0.91514337
-0.49341935 4.5527945 -0.93135023
-0.48465824 4.5668225 -0.82103848
-0.33247498 4.5614414 -0.83912194
-0.48541656 4.5725093 -0.85946876
-0.33127463 4.554265 -0.874861
-0.48322389 4.5451369 -0.89347398
-0.33238745 4.5542235 -0.91285193
-0.48237744 4.5433702 -0.92964375
-0.47560495 4.5720468 -0.8217029
-0.3235991 4.5701642 -0.84037876
-0.47581148 4.5738053 -0.85960209
-0.32242104 4.5629716 -0.8762089
-0.47276643 4.5395746 -0.89251459
-0.3237116 4.5648804 -0.91461849
-0.47166443 4.5358615 -0.92827213
-0.46573704 4.5713506 -0.82157111
-0.31290975 4.5581422 -0.838714
-0.4656795 4.5711489 -0.85915864
-0.31259674 4.5608158 -0.87590146
-0.46339682 4.5418096 -0.89280319
-0.31161946 4.5361872 -0.90989184
-0.46178505 4.5341811 -0.92790258
-0.45626184 4.5735717 -0.82183874
-0.30359077 4.5618768 -0.83927679
-0.45595163 4.571404 -0.85914934
-0.30286804 4.5596151 -0.87574518
-0.45324847 4.5381403 -0.89215648
-0.30212978 4.5369525 -0.91003573
-0.45243105 4.5363793 -0.92820263
-0.44715133 4.5787134 -0.822505
-0.2933948 4.5547237 -0.83830714
-0.44585073 4.5686841 -0.85870677
-0.29346007 4.5623274 -0.87619221
-0.44262549 4.5305195 -0.89088494
-0.29186064 4.5278535 -0.90855563
-0.44169539 4.5277925 -0.92666447
-0.43728116 4.5779285 -0.82237542
-0.2837685 4.55445 -0.83831453
-0.43516192 4.5610218 -0.85754335
-0.28373951 4.5610676 -0.87603718
-0.43315253 4.5316839 -0.89101911
-0.28277111 4.5334783 -0.90951347
-0.43332824 4.5377579 -0.92830384
-0.42563373 4.5623531 -0.82025492
-0.27479365 4.5630355 -0.83957624
-0.42630595 4.5680599 -0.85854614
-0.27395749 4.5587916 -0.87573183
-0.423437 4.530858 -0.89084184
-0.27357799 4.5380917 -0.91030943
-0.42430973 4.5428071 -0.92910874
-0.41768223 4.57725 -0.82225209
-0.26521739 4.5636926 -0.83972406
-0.41636762 4.5662289 -0.85825014
-0.26432812 4.5584579 -0.87572861
-0.41419527 4.5339265 -0.89128971
-0.26367033 4.5328355 -0.90947974
-0.41433901 4.5399971 -0.92857516
-0.40478292 4.5497875 -0.81853497
-0.25577047 4.5662966 -0.84015143
-0.40610507 4.5614166 -0.85752106
-0.25496456 4.5620408 -0.87632966
-0.40482417 4.5359864 -0.89158332
-0.25452062 4.5383773 -0.91044056
-0.40495199 4.5420532 -0.92887902
-0.39612529 4.5587201 -0.8197372
-0.24649882 4.5718365 -0.84099919
-0.39598602 4.5575538 -0.85693741
-0.24520624 4.5596752 -0.87602603
-0.39533451 4.5370359 -0.89172053
-0.24452269 4.5310926 -0.9092865
-0.39511663 4.5401616 -0.9285146
-0.38506287 4.5459528 -0.81801426
-0.23677555 4.5704298 -0.84086955
-0.38610625 4.5556278 -0.85664159
-0.23516725 4.5523472 -0.87496781
-0.38659108 4.544929 -0.8929525
-0.23534818 4.5365777 -0.91024911
-0.38540307 4.5392199 -0.92831802
-0.37678441 4.5587735 -0.81974936
-0.22706386 4.5689945 -0.84074152
-0.37676167 4.5585909 -0.85707068
-0.22596556 4.5588036 -0.87602413
-0.37748998 4.5498524 -0.89371681
-0.22489232 4.5203662 -0.9076308
-0.37549055 4.5362873 -0.92778611
-0.3668156 4.5557976 -0.81935751
-0.21768412 4.5734615 -0.84145224
-0.36750159 4.5625095 -0.85764515
-0.21586958 4.5494394 -0.87466437
-0.36735159 4.5449233 -0.89291835
-0.21588266 4.528749 -0.90908301
-0.36590138 4.5362659 -0.92775798
-0.35794568 4.5636401 -0.82043082
-0.20761932 4.5650449 -0.84034681
-0.35734183 4.5575399 -0.85691798
-0.2063878 4.5509028 -0.8749668
-0.35812861 4.5488076 -0.89352798
-0.20626411 4.5262675 -0.90874469
-0.35641304 4.5371943 -0.92789793
-0.34827033 4.5635638 -0.82043946
-0.19789444 4.56253 -0.84008014
-0.34664595 4.546627 -0.85532248
-0.19685154 4.5513501 -0.87511885
-0.34821856 4.545783 -0.89304316
-0.19661488 4.5227704 -0.90824354
-0.34616417 4.5302448 -0.9266963
-0.33841497 4.5614848 -0.82018173
-0.18778305 4.5510836 -0.83855516
-0.33849689 4.5622802 -0.85763645
-0.18695833 4.5438676 -0.87406069
-0.33906788 4.5505939 -0.89381099
-0.18725665 4.5251584 -0.90872037
-0.33660269 4.5301332 -0.92666984
-0.32884249 4.5623355 -0.82032502
-0.17832781 4.5534549 -0.83898795
-0.32723755 4.5444059 -0.85502779
-0.17711169 4.536355 -0.87300354
-0.32971159 4.553411 -0.89426672
-0.17771807 4.5235748 -0.90854681
-0.32668871 4.5260639 -0.92597246
-0.31900927 4.5601969 -0.82006931
-0.16847211 4.5459032 -0.83802187
-0.31832013 4.5521221 -0.85618484
-0.16777444 4.5406651 -0.87376213
-0.31956491 4.5473452 -0.89331383
-0.16877161 4.5367484 -0.91081929
-0.31697482 4.5239286 -0.92561162
-0.3093572 4.5600009 -0.82008028
-0.15948282 4.56108 -0.84027731
-0.30910856 4.5568542 -0.85690856
-0.15784465 4.5291409 -0.87209988
-0.30945873 4.5412459 -0.89236009
-0.15888906 4.5262341 -0.90917861
-0.30711097 4.5197983 -0.92491496
-0.30018738 4.5657039 -0.82089257
-0.14981484 4.5584183 -0.84001315
-0.29939288 4.5556421 -0.85676426
-0.14873107 4.5403075 -0.87391996
-0.30059391 4.5498805 -0.89375895
-0.14982359 4.5383687 -0.91129029
-0.29767305 4.5205488 -0.92505825
-0.29021731 4.5614986 -0.82037139
-0.14034186 4.5616636 -0.84058988
-0.28991765 4.5573592 -0.85705465
-0.13908093 4.5356398 -0.8733182
-0.29106176 4.5506134 -0.89390421
-0.28853986 4.5252028 -0.9258734
-0.28182536 4.5780158 -0.82265437
-0.13045183 4.550035 -0.83906448
-0.28050694 4.5600343 -0.85749161
-0.12964389 4.5378585 -0.87377727
-0.28011978 4.5326052 -0.89107019
-0.13131304 4.5566382 -0.91454113
-0.2786434 4.5199981 -0.9250102
-0.2715643 4.5697989 -0.82160074
-0.12126896 4.5651002 -0.84132576
-0.27143565 4.5676165 -0.8586545
-0.12019445 4.5400496 -0.87423718
-0.27149326 4.5450964 -0.89309812
-0.12147857 4.5450201 -0.91273928
-0.26955873 4.5255795 -0.92599583
-0.26176351 4.5674801 -0.82134771
-0.11154364 4.558362 -0.8405025
-0.26110265 4.5574045 -0.85720545
-0.1108952 4.550117 -0.875911
-0.26143175 4.5378585 -0.89199018
-0.11229351 4.5609894 -0.91551077
-0.26044264 4.5311322 -0.92698276
-0.25366107 4.5908432 -0.82457113
-0.10212258 4.566442 -0.84178376
-0.25096309 4.5491328 -0.85604692
-0.10162096 4.5650978 -0.87834597
-0.25141579 4.5305882 -0.89088219
-0.10265912 4.5572014 -0.91501617
-0.25148907 4.5396113 -0.92847586
-0.24325828 4.5795674 -0.82311726
-0.092493072 4.5636048 -0.84152293
-0.24099898 4.5428047 -0.85517913
-0.091984831 4.5612741 -0.87789929
-0.24175604 4.5282149 -0.89055908
-0.093018852 4.5514135 -0.9141953
-0.24229921 4.5451112 -0.92946529
-0.23404032 4.5870552 -0.82420468
-0.082938701 4.5656867 -0.8419652
-0.23101746 4.5354571 -0.85416543
-0.082440741 4.5633492 -0.87836349
-0.23234946 4.5297542 -0.89086437
-0.083495885 4.5525007 -0.91451919
-0.23337249 4.5555053 -0.93129623
-0.2244451 4.5885777 -0.82449067
-0.073355101 4.5657606 -0.84212685
-0.22208305 4.5458589 -0.85576826
-0.072940797 4.5723147 -0.87989146
-0.22332749 4.538168 -0.89227009
-0.073949993 4.5515862 -0.91451621
-0.21347347 4.564342 -0.82129753
-0.063815385 4.5737257 -0.84341276
-0.21213967 4.5384507 -0.85475636
-0.063344806 4.5733447 -0.88020599
-0.2136725 4.5357075 -0.89194888
-0.064426437 4.5536017 -0.91500449
-0.20399117 4.5667934 -0.8217169
-0.054185711 4.5648303 -0.84231108
-0.20363127 4.5586796 -0.85781682
-0.053732004 4.5694036 -0.87976164
-0.20458373 4.5440664 -0.89335692
-0.054854006 4.5417776 -0.91320312
-0.19403036 4.5593171 -0.82079899
-0.044593394 4.5816483 -0.84486449
-0.19369803 4.5512128 -0.85680509
-0.044145528 4.5624671 -0.87886167
-0.045345336 4.5506406 -0.91483867
-0.18446362 4.5597301 -0.8209523
-0.03497646 4.5776439 -0.84446776
-0.18389834 4.545692 -0.85608464
-0.0346095 4.5535254 -0.87765753
-0.18586268 4.5518255 -0.8947621
-0.035813034 4.5505962 -0.91500211
-0.18405046 4.5223961 -0.92598975
-0.17489645 4.5601134 -0.82110637
-0.025404366 4.570642 -0.84364808
-0.17401226 4.5371752 -0.85492766
-0.025018312 4.5603695 -0.87888646
-0.17603843 4.5453024 -0.89381444
-0.026275583 4.5515099 -0.91533041
-0.17525722 4.5385308 -0.92883873
-0.16510393 4.5545254 -0.8204565
-0.015610512 4.5903401 -0.84662884
-0.16474155 4.5434575 -0.85595518
-0.015483916 4.5573001 -0.87859547
-0.16724181 4.5644059 -0.8969593
-0.01682622 4.5425286 -0.91402054
-0.16591382 4.5428209 -0.92966592
-0.15575884 4.560792 -0.82141662
-0.0061573833 4.5743704 -0.84454411
-0.15508951 4.539824 -0.85552627
-0.0060714744 4.5462961 -0.87708628
-0.15686221 4.5420341 -0.89349329
-0.15612923 4.5352616 -0.92847168
-0.14618942 4.561089 -0.82157278
0.0034525804 4.5742097 -0.84471166
-0.145711 4.5440712 -0.85626507
0.0034495145 4.546134 -0.87725222
-0.14808844 4.5650306 -0.89727104
0.0023260564 4.551116 -0.91582692
-0.14661244 4.5345683 -0.92845798
-0.13653211 4.5583839 -0.82132638
0.013418633 4.5928278 -0.84755659
-0.13591118 4.5344462 -0.85496235
0.012950968 4.5449562 -0.87726665
-0.1384533 4.5633249 -0.89711291
0.011878185 4.5519128 -0.91615808
-0.13698693 4.5299053 -0.92776966
-0.12727474 4.570509 -0.82309544
0.022909727 4.5846896 -0.84659898
-0.12672879 4.5465484 -0.85686874
0.022600312 4.5506649 -0.87834907
-0.12867379 4.5556679 -0.89600992
0.021392215 4.5507088 -0.91616142
-0.12705682 4.5124025 -0.92488754
-0.11774154 4.5736899 -0.82365668
0.032700483 4.5903802 -0.84761524
-0.11736102 4.5536771 -0.8580482
0.032033857 4.546464 -0.87790668
-0.11930743 4.5637755 -0.89742863
0.030948181 4.5514464 -0.91649401
-0.11771102 4.5155621 -0.92554915
-0.10797787 4.5659456 -0.82274163
0.042107295 4.5811954 -0.84651661
0.041750971 4.553102 -0.87914371
-0.10973336 4.5639567 -0.89758754
0.040122967 4.5383525 -0.91452742
-0.10807031 4.5048981 -0.92384791
-0.098538786 4.5750122 -0.8241111
0.051396344 4.5700035 -0.84513581
-0.098416343 4.5629063 -0.85967994
0.05175795 4.5676117 -0.8816011
-0.10012556 4.5621347 -0.89743167
0.04958621 4.5370626 -0.91453278
-0.098862305 4.5158844 -0.92586279
-0.089084804 4.5870242 -0.82588619
0.06068695 4.5607643 -0.84403646
-0.089042336 4.5778637 -0.8620311
0.06113987 4.561347 -0.88085693
-0.090515152 4.5592947 -0.89711857
0.059143197 4.5387011 -0.91503048
-0.089615554 4.5288148 -0.92821825
-0.079322383 4.5762186 -0.82456839
0.070179611 4.5584235 -0.84392476
-0.079381987 4.5739975 -0.86160874
0.070668861 4.5599937 -0.88087595
-0.081042156 4.5672879 -0.89854181
0.068894371 4.5452394 -0.91635132
-0.080267757 4.5397453 -0.93023694
-0.069610871 4.5634003 -0.82298166
0.079780012 4.5590205 -0.84423852
-0.069846183 4.5839524 -0.86323225
0.081032842 4.5793476 -0.88410151
-0.071442097 4.5653782 -0.89838779
0.07856667 4.5487905 -0.91718042
-0.070838884 4.548676 -0.9319185
-0.060067326 4.5713625 -0.82422066
-0.060154028 4.5711241 -0.86149544
0.090179324 4.5680604 -0.88259542
-0.061911609 4.5752888 -0.90012944
0.088135153 4.5493546 -0.9175173
-0.061314683 4.5487084 -0.93208003
-0.050464727 4.5713668 -0.82438421
0.09839572 4.5472713 -0.8430286
-0.05056338 4.578052 -0.86268246
0.099167332 4.5547724 -0.88078332
-0.052327376 4.5891194 -0.9025054
0.097661272 4.5489039 -0.91769016
-0.051800348 4.5556111 -0.93342638
-0.040859379 4.5733242 -0.82481825
0.10846134 4.5576696 -0.84475875
-0.040960386 4.5691242 -0.86153007
0.10925323 4.5651474 -0.88263839
-0.042725056 4.5515742 -0.89666378
0.10718679 4.5484252 -0.91786373
-0.042251978 4.5575566 -0.93392873
-0.031187698 4.5861521 -0.82673502
0.11807138 4.5581498 -0.84507537
-0.031387947 4.5651112 -0.86110973
0.11742386 4.5379896 -0.87868452
-0.033184834 4.5525112 -0.89698559
0.11650464 4.5439777 -0.91737914
-0.032766633 4.5427184 -0.93155301
-0.021501992 4.591023 -0.82757556
0.12768485 4.5586014 -0.84539175
-0.02181508 4.5640388 -0.86112785
0.12774533 4.5522532 -0.88115406
-0.023602027 4.5583549 -0.89809966
0.12634262 4.5493498 -0.91854167
-0.023379566 4.5268669 -0.92900717
-0.011883419 4.5869474 -0.82720351
0.13759431 4.5639634 -0.84641767
-0.012358833 4.5530448 -0.8596822
0.13699244 4.5467515 -0.88056487
-0.01410678 4.552321 -0.89731514
0.13569608 4.5458302 -0.91822314
-0.013984337 4.5208416 -0.92815459
-0.0021922328 4.5897789 -0.82777667
0.14747608 4.5683069 -0.84730375
-0.002899155 4.546968 -0.85896897
0.14571832 4.5333328 -0.87875032
-0.0047163181 4.5413218 -0.89574039
0.14521226 4.5452352 -0.91839921
-0.0044772923 4.5256286 -0.9291662
0.0075679533 4.595551 -0.82875443
0.1570657 4.5676799 -0.84748185
0.0067439564 4.5537219 -0.8601619
0.15539178 4.5356679 -0.87938571
0.0047392175 4.5381942 -0.8954314
0.15548925 4.5564227 -0.92055368
0.004844375 4.5175772 -0.92797554
0.016922679 4.5795007 -0.82676291
0.1667209 4.5680118 -0.84780169
0.01610944 4.54462 -0.85900974
0.16508065 4.5379734 -0.88002217
0.01435072 4.543921 -0.89654779
0.16450404 4.5478954 -0.91941297
0.014312241 4.5193501 -0.92847967
0.026341055 4.5703564 -0.82571661
0.17588766 4.5614018 -0.84713006
0.025787439 4.5513148 -0.86020362
0.17464505 4.5382767 -0.88035309
0.023683894 4.5357995 -0.89544809
0.17423479 4.5501642 -0.92008603
0.024039958 4.5319319 -0.93085027
0.036017943 4.5730696 -0.82629132
0.18508992 4.5557528 -0.84660053
0.035480823 4.5569901 -0.86125243
0.1845057 4.5424924 -0.88129896
0.033298392 4.5404816 -0.89640784
0.18478076 4.5632219 -0.92257452
0.033257511 4.5218244 -0.92932093
0.045275573 4.5608983 -0.82483977
0.19525118 4.5629072 -0.84791601
0.044977587 4.5547256 -0.86112916
0.1941659 4.5437222 -0.88178504
0.043055642 4.5490823 -0.89800268
0.19533341 4.5752621 -0.92490101
0.042756598 4.5235105 -0.92982852
0.054619502 4.5536504 -0.82406294
0.20498221 4.5641079 -0.84838188
0.054364722 4.5494661 -0.86056471
0.20399444 4.5468917 -0.88257867
0.052739974 4.5537047 -0.89896607
0.2054898 4.581367 -0.92623889
0.052329447 4.5271382 -0.93067622
0.063919812 4.5463758 -0.823286
0.21455838 4.5633059 -0.84856379
0.063826308 4.5471439 -0.86044109
0.21417336 4.5539694 -0.88398725
0.062040638 4.5464559 -0.89802551
0.21478583 4.5766282 -0.9257617
0.061995115 4.5327058 -0.93186414
0.073673904 4.5519447 -0.82426941
0.22387646 4.5595164 -0.84832001
0.0732743 4.5447946 -0.86031777
0.22329007 4.5482144 -0.88340175
0.071822494 4.5529928 -0.89930785
0.22481842 4.5807061 -0.92677081
0.071056575 4.5215025 -0.93016553
0.083545759 4.559463 -0.8255254
0.23370288 4.561615 -0.84892952
0.082462594 4.5364861 -0.85931408
0.23290299 4.5483403 -0.88373768
0.081726491 4.5614715 -0.90090811
0.23329999 4.5670691 -0.92480612
0.08086215 4.5299649 -0.9318645
0.093021259 4.5570521 -0.82542706
0.24299784 4.5577688 -0.8486867
0.092792749 4.554831 -0.86227953
0.2438881 4.5631938 -0.88637877
0.091248468 4.5600543 -0.90092242
0.24324273 4.5701056 -0.92565179
0.090241581 4.5275669 -0.9316963
0.10281445 4.5615401 -0.82627839
0.25283709 4.5598073 -0.84929782
0.10200988 4.5474544 -0.86142361
0.25308198 4.5583372 -0.88594872
0.10057646 4.5546656 -0.90030193
0.25189438 4.5593653 -0.92418253
0.099328265 4.5192351 -0.9305073
0.11243632 4.5620394 -0.82658875
0.26230216 4.5578747 -0.84934032
0.11138448 4.5440006 -0.86115581
0.11021981 4.5561495 -0.90079379
0.25980568 4.5417318 -0.92155421
0.10816757 4.5069408 -0.92863834
0.12222119 4.5654769 -0.82730639
0.27206016 4.5588679 -0.84981042
0.12127174 4.550396 -0.8623603
0.11961131 4.5526757 -0.90049183
0.26980641 4.5456657 -0.92256701
0.11724742 4.5005255 -0.92778945
0.13214189 4.5708623 -0.82829696
0.2824465 4.5657377 -0.8511374
0.13074924 4.548861 -0.86238861
0.28277203 4.5652275 -0.8880443
0.12931536 4.555088 -0.90114403
0.28168252 4.5672226 -0.92656028
0.12684657 4.503921 -0.92864299
0.14180006 4.5712724 -0.82861006
0.29160136 4.5607638 -0.85075438
0.14021914 4.5472965 -0.86241651
0.29085958 4.5504341 -0.88607693
0.13815895 4.5426869 -0.89941061
0.29083872 4.5622611 -0.92608595
0.13593988 4.4984355 -0.92796481
0.15090083 4.5627537 -0.82770073
0.30160397 4.563633 -0.85151303
0.14961839 4.5447173 -0.86229885
0.30366972 4.5788288 -0.89088464
0.1483427 4.5529242 -0.90133762
0.30062133 4.5631552 -0.92660499
0.14635602 4.5145583 -0.93103373
0.16119483 4.5729914 -0.82937348
0.31072763 4.5586047 -0.85113078
0.15913515 4.5440826 -0.86247581
0.31059188 4.5541658 -0.88737637
0.15755913 4.5473666 -0.90071821
0.31007588 4.561079 -0.92662752
0.1560335 4.5178642 -0.93189073
0.1699104 4.5594749 -0.82778615
0.32040155 4.5584641 -0.85146296
0.16899048 4.5483541 -0.86339128
0.32174891 4.5667787 -0.8897227
0.16674191 4.5417819 -0.90009987
0.3181456 4.5472198 -0.92466092
0.16694912 4.5388341 -0.93581629
0.17968862 4.5617452 -0.82837284
0.32889405 4.5484672 -0.85036778
0.17837499 4.5456877 -0.86327434
0.33144718 4.5666008 -0.8900671
0.17638814 4.5430622 -0.9005965
0.32801729 4.5490079 -0.92534757
0.1764417 4.5381432 -0.93599415
0.18970594 4.5669484 -0.82936931
0.33999914 4.5600576 -0.85241389
0.18796805 4.5459514 -0.86360073
0.34139097 4.5683541 -0.89072084
0.18471812 4.5265932 -0.89822614
0.33802333 4.5517426 -0.92620146
0.18607913 4.5393887 -0.93651342
0.1997577 4.5721197 -0.83036709
0.35068092 4.5676823 -0.85389137
0.19764256 4.547173 -0.86407614
0.35097608 4.5671353 -0.89091271
0.19463567 4.5317559 -0.89936101
0.34743148 4.5495539 -0.92622685
0.19519094 4.5337281 -0.93583965
0.2088763 4.5654106 -0.82973194
0.35962939 4.5615296 -0.85336924
0.20764773 4.5523071 -0.865143
0.36068469 4.5668669 -0.8912605
0.20450781 4.5359044 -0.90033758
0.35657626 4.5453811 -0.92591906
0.2046677 4.5329518 -0.93601918
0.21887569 4.5695338 -0.83059525
0.370891 4.5730119 -0.85542166
0.21726902 4.5524817 -0.86547196
0.37039566 4.5665689 -0.89160788
0.21564563 4.5547752 -0.90370882
0.36725494 4.5529122 -0.92760658
0.21282034 4.5164366 -0.93346798
0.22838326 4.5677032 -0.83064198
0.38009274 4.5687637 -0.85518658
0.22784542 4.5634646 -0.86742938
0.37997505 4.5652623 -0.89180171
0.22476088 4.5490212 -0.90309322
0.37665632 4.5506368 -0.92763305
0.22241531 4.5175714 -0.93399012
0.23779191 4.564858 -0.83055377
0.39090952 4.576251 -0.85666949
0.23822211 4.5714569 -0.86894393
0.38982198 4.5658832 -0.89230514
0.23481928 4.5540557 -0.90423334
0.38631991 4.5502853 -0.92799294
0.23219724 4.5206366 -0.93485343
0.24644612 4.5540938 -0.82937419
0.4005208 4.574883 -0.85686529
0.24708022 4.562676 -0.8679446
0.39884198 4.5606041 -0.89188099
0.24628456 4.573801 -0.90777075
0.39570808 4.5479517 -0.92802048
0.24209131 4.5246534 -0.9358896
0.2562798 4.5561256 -0.82996744
0.41155079 4.5832806 -0.85849357
0.25789011 4.574542 -0.87005329
0.40826049 4.5582328 -0.89192188
0.25692642 4.5836792 -0.90971303
0.40706733 4.5592523 -0.93037784
0.25135162 4.5217729 -0.93573058
0.26583216 4.5551682 -0.83015257
0.42089343 4.5798917 -0.85840487
0.26720133 4.5706258 -0.86979532
0.41883102 4.5636516 -0.89320171
0.41503134 4.5471025 -0.92874265
0.26020539 4.5149431 -0.93488753
0.27802435 4.5798035 -0.83388913
0.43155378 4.5852823 -0.85960698
0.27770787 4.5784874 -0.87131619
0.42795628 4.5592675 -0.89293456
0.27568319 4.5768137 -0.90928781
0.42705527 4.5622325 -0.93176913
0.27083099 4.5257311 -0.93712342
0.28743917 4.5768099 -0.83380449
0.44058678 4.5798783 -0.85923195
0.28628245 4.5676293 -0.87002146
0.43751216 4.557785 -0.89313197
0.28498277 4.5728488 -0.90899563
0.43932664 4.5782909 -0.93496537
0.28131863 4.5345225 -0.93901944
0.29544106 4.5609865 -0.83194172
0.44989967 4.5764041 -0.85914469
0.29661873 4.5734601 -0.87124681
0.44798908 4.5621285 -0.89425945
0.29628712 4.587502 -0.91174293
0.44878516 4.575798 -0.93499768
0.30711007 4.5786142 -0.83472872
0.45888138 4.5709486 -0.85877001
0.30666327 4.5763097 -0.87202966
0.45802516 4.5635114 -0.89492333
0.30450428 4.5736656 -0.9098525
0.45854491 4.5752239 -0.93536448
0.30147648 4.5431876 -0.94127524
0.31616232 4.5725818 -0.83423471
0.46863586 4.5703516 -0.85911429
0.3182025 4.591898 -0.87474203
0.47015613 4.5775356 -0.89760339
0.31466743 4.5774622 -0.9108423
0.46862495 4.5765657 -0.93606508
0.3113192 4.5450239 -0.94197631
0.32634866 4.5763621 -0.83510923
0.4774121 4.5638676 -0.85859603
0.327162 4.5848579 -0.87404287
0.32497302 4.5822048 -0.9119935
0.47920537 4.5807934 -0.93726707
0.32013541 4.5380235 -0.94113672
0.33452582 4.5633917 -0.83365691
0.48897958 4.5739427 -0.86052245
0.33596373 4.5768118 -0.87319446
0.4892078 4.5733113 -0.89785182
0.3331762 4.5692754 -0.91026258
0.48717105 4.5694323 -0.93580055
0.33211297 4.5574059 -0.94492531
0.3437317 4.5592475 -0.83343744
0.49858314 4.5722771 -0.86072505
0.34594294 4.5785546 -0.87383199
0.49880642 4.5716429 -0.89805436
0.34154654 4.5582857 -0.90885031
0.49810112 4.5755405 -0.93733871
0.34372604 4.5728326 -0.94803095
0.35279077 4.5540953 -0.83308005
0.50749189 4.5666838 -0.86035329
0.35593659 4.5802655 -0.87447047
0.50977552 4.5777268 -0.89949965
0.35209626 4.564899 -0.91032505
0.50684732 4.5689869 -0.93670654
0.35269839 4.5667181 -0.9473654
0.36272219 4.5557909 -0.83368385
0.51637089 4.5610657 -0.8599807
0.36530307 4.5770416 -0.87436736
0.51921284 4.5750232 -0.89954853
0.36103109 4.5587521 -0.90971565
0.51764852 4.5740561 -0.9380796
0.36176485 4.561554 -0.94687235
0.3714824 4.5486202 -0.83305335
0.52646959 4.5622368 -0.86061656
0.37373304 4.5669308 -0.87322259
0.529172 4.5752068 -0.90006411
0.36993232 4.5525808 -0.9091053
0.5272463 4.572299 -0.93828428
0.37288952 4.5719886 -0.94912493
0.3816843 4.5522189 -0.8339324
0.53857231 4.5740762 -0.86283797
0.38358283 4.5675735 -0.87371361
0.53986126 4.5792437 -0.90120232
0.3800025 4.5551872 -0.9099412
0.53773957 4.5753589 -0.93932486
0.38221446 4.5687184 -0.94897509
0.38915852 4.5361667 -0.83206701
0.54928005 4.5780931 -0.86390889
0.54837304 4.5715971 -0.90047574
0.38927239 4.5518942 -0.90981305
0.54697424 4.5716038 -0.93919694
0.38961437 4.5517626 -0.94642127
0.40005583 4.5446115 -0.8336339
0.56057823 4.5849891 -0.86541486
0.40218455 4.5609365 -0.87350845
0.55777901 4.568778 -0.90052676
0.39922357 4.5534606 -0.91049016
0.55544728 4.5639482 -0.93839979
0.39802909 4.5425925 -0.94524133
0.41186959 4.5588984 -0.83602726
0.57173473 4.5908732 -0.866777
0.41260827 4.5654039 -0.87459815
0.56584412 4.5591455 -0.89948881
0.40847626 4.5501113 -0.91036296
0.56803811 4.5775576 -0.94128454
0.40710327 4.5382743 -0.94491971
0.41937616 4.5437531 -0.83429933
0.58023071 4.5831327 -0.86612034
0.42394042 4.5757055 -0.87658322
0.57771128 4.5688701 -0.9015646
0.41698441 4.5418544 -0.90943348
0.57399756 4.5572729 -0.9383117
0.41615573 4.5339308 -0.94459915
0.42978665 4.5481758 -0.83531976
0.59084004 4.5860376 -0.86705154
0.43384746 4.5761909 -0.87707978
0.58729464 4.5669312 -0.90177321
0.42886177 4.5560169 -0.91220307
0.58529717 4.564043 -0.94002676
0.4265202 4.5383248 -0.94582653
0.44114569 4.558435 -0.83716822
0.59968352 4.5801845 -0.86668479
0.44299999 4.5717602 -0.87683105
0.59548199 4.5581913 -0.90089154
0.43855864 4.5555072 -0.91256118
0.59743649 4.574635 -0.94241393
0.4355545 4.5339246 -0.94550622
0.45272663 4.5696321 -0.83915675
0.60829389 4.5733376 -0.86617219
0.45383799 4.5780458 -0.87822449
0.60644376 4.5629678 -0.90219212
0.4493371 4.56179 -0.91404665
0.60502636 4.5629826 -0.94094789
0.44734353 4.5470114 -0.94828534
0.46295297 4.5719886 -0.83990717
0.61707407 4.5674367 -0.86580449
0.46171099 4.5657487 -0.8767823
0.61519057 4.5570774 -0.90177858
0.45905697 4.5612164 -0.91440678
0.61275446 4.5522785 -0.93964911
0.47109705 4.5616074 -0.83886802
0.6264478 4.5644131 -0.86587179
0.47144949 4.5651402 -0.87713152
0.62453038 4.55406 -0.90183318
0.46877825 4.5606117 -0.91476762
0.6247642 4.5617995 -0.94187212
0.48049945 4.5590205 -0.83893061
0.63538706 4.5594282 -0.86564952
0.48086005 4.5625525 -0.87718332
0.63448936 4.5539098 -0.90235662
0.48111343 4.5755515 -0.9177078
0.47962517 4.5646358 -0.95284534
0.49223655 4.5700707 -0.84092414
0.64643997 4.5640798 -0.86687458
0.49293542 4.5755277 -0.87962681
0.6470148 4.5653 -0.90475583
0.49154896 4.5787702 -0.91871583
0.49151862 4.5765862 -0.95546067
0.50251162 4.5722995 -0.84167939
0.65514362 4.5580726 -0.86650896
0.50152081 4.5680046 -0.87893248
0.65853363 4.571826 -0.90637505
0.50048536 4.5732045 -0.91827393
0.50365961 4.5894642 -0.95825076
0.51176399 4.5686426 -0.8416065
0.6675511 4.5684428 -0.86860693
0.51266289 4.5750613 -0.88048208
0.66834486 4.5706048 -0.90674591
0.50865775 4.5615621 -0.9537971
0.52329391 4.5776277 -0.84332955
0.67624462 4.5623775 -0.86824155
0.51997751 4.5606732 -0.87874007
0.67904365 4.5732021 -0.90774286
0.51961547 4.5675855 -0.95538056
0.53326774 4.577806 -0.84381151
0.6849075 4.5562873 -0.86787629
0.53240514 4.574471 -0.8813405
0.69021559 4.5776873 -0.90905392
0.52937025 4.5667906 -0.95575738
0.5448907 4.5867147 -0.84553802
0.69742459 4.5665402 -0.86997879
0.53872913 4.5551791 -0.87884986
0.69982493 4.575407 -0.909271
0.54002911 4.570806 -0.95699871
0.55657429 4.5955815 -0.84726655
0.70746428 4.566164 -0.87048578
0.55549079 4.591239 -0.88489938
0.71150655 4.5817389 -0.91089773
0.54888016 4.5651088 -0.95651436
0.56831652 4.6044049 -0.84899616
0.71774369 4.5667167 -0.87113929
0.56570899 4.5922813 -0.88555741
0.71738261 4.5640411 -0.90861034
0.55956906 4.5690579 -0.95775771
0.57475907 4.5859795 -0.84685355
0.72684723 4.5624337 -0.8710674
0.57402897 4.58359 -0.88471681
0.72813475 4.5664716 -0.90961206
0.56895971 4.566206 -0.95779228
0.58692616 4.5966773 -0.84886265
0.74145579 4.5801992 -0.87433946
0.58036155 4.5651822 -0.88237476
0.73866808 4.5679078 -0.91045833
0.57988048 4.571053 -0.95921063
0.59719026 4.5976253 -0.84948957
0.74961525 4.5720091 -0.87368751
0.59426737 4.5845528 -0.88588649
0.74970269 4.5712237 -0.91161931
0.58594382 4.5517306 -0.95630515
0.60666603 4.5946603 -0.84956229
0.76068532 4.5752997 -0.87478161
0.60489899 4.5874057 -0.88684738
0.75830817 4.5649362 -0.91121256
0.59725928 4.5584474 -0.95807076
0.61592585 4.5906982 -0.84949654
0.77004009 4.5718493 -0.8748576
0.61494619 4.5873208 -0.88735968
0.76862258 4.5653162 -0.91190469
0.60499191 4.54777 -0.95672238
0.62434185 4.5828347 -0.84887636
0.78215158 4.5788951 -0.87653702
0.6245873 4.5852709 -0.88757187
0.77869606 4.5647068 -0.91244078
0.6145066 4.5457463 -0.95693183
0.63313437 4.5768852 -0.84853399
0.79049098 4.5715556 -0.87603235
0.63380402 4.5812583 -0.8874836
0.78750008 4.5592937 -0.91219211
0.62214768 4.5350285 -0.95558178
0.64232218 4.5728469 -0.84846884
0.79982501 4.5680165 -0.87611008
0.64511961 4.586875 -0.8889007
0.79782391 4.5595775 -0.91288662
0.63288599 4.5387263 -0.95683193
0.65170586 4.5697489 -0.84854412
0.81018692 4.5682678 -0.87677193
0.65175408 4.5712218 -0.88700759
0.8063342 4.5531592 -0.91248131
0.64087886 4.5298882 -0.95582902
0.65693402 4.5482688 -0.84597701
0.81818682 4.5599031 -0.8761214
0.66112739 4.5680957 -0.88707137
0.81928819 4.5628986 -0.91475141
0.66756248 4.5509195 -0.8468855
0.82774168 4.5572348 -0.87634659
0.672252 4.5726509 -0.88834
0.82964855 4.5630784 -0.9154489
0.67731732 4.5496759 -0.8472389
0.83809692 4.5573931 -0.87701058
0.68050623 4.5646472 -0.88765121
0.84243846 4.571775 -0.91756439
0.68866044 4.5551486 -0.84856772
0.85172915 4.5689297 -0.87942916
0.69143546 4.568172 -0.88877153
0.85202742 4.5690308 -0.91779196
0.69820458 4.5528765 -0.84878349
0.86103588 4.5652094 -0.87951064
0.70262253 4.5726194 -0.89004469
0.86188132 4.5672064 -0.9181776
0.71007001 4.5601997 -0.85039318
0.87088525 4.5633597 -0.87988579
0.71198499 4.5693412 -0.8901118
0.87228858 4.5672455 -0.91887927
0.72316486 4.572288 -0.85270166
0.88213652 4.5662217 -0.88099307
0.72227442 4.5698752 -0.89078283
0.88242388 4.5663047 -0.91942406
0.73085189 4.562222 -0.85180539
0.89625317 4.5785208 -0.88356614
0.73281395 4.5713363 -0.89160562
0.89454722 4.5719509 -0.92107439
0.74428254 4.5751853 -0.85425735
0.90729797 4.580348 -0.88453001
0.74312735 4.5718031 -0.89227855
0.90327585 4.5662141 -0.92083192
0.75486559 4.5765815 -0.85503626
0.9169147 4.5774083 -0.88476264
0.75491494 4.5779834 -0.89385968
0.91458184 4.5689487 -0.92201114
0.76447374 4.5741076 -0.85525781
0.92944807 4.5838881 -0.88646233
0.76230198 4.5668921 -0.8927201
0.93000412 4.5848498 -0.92540467
0.77507681 4.5754352 -0.85603881
0.93611956 4.5714397 -0.88522935
0.77087861 4.5605674 -0.89233685
0.93549991 4.5686455 -0.9234252
0.78848147 4.5872574 -0.85835874
0.94749796 4.5740709 -0.88634419
0.78068799 4.5589981 -0.89270973
0.94567311 4.5675006 -0.9239763
0.7978664 4.5837235 -0.85844421
0.96101147 4.5832567 -0.88848859
0.79228604 4.5640821 -0.89414406
0.96096188 4.5823107 -0.92721713
0.80749536 4.5811186 -0.85866916
0.96941847 4.5763879 -0.8881371
0.79797333 4.5471816 -0.89209503
0.96784741 4.5707502 -0.92602897
0.81947583 4.5870767 -0.86015463
0.98362762 4.5873632 -0.89057869
0.81115055 4.5579185 -0.89443958
0.97834975 4.5704389 -0.92674041
0.82832074 4.5815434 -0.85996056
0.99233443 4.5813727 -0.89037597
0.82043362 4.5543189 -0.89451289
0.98885959 4.5700941 -0.9274528
0.83981895 4.5855174 -0.86116904
1.00852 4.5978794 -0.8937043
0.83371401 4.5649657 -0.89686227
0.99937695 4.5697136 -0.92816615
0.84945381 4.5827832 -0.86139715
1.0137696 4.5815077 -0.89188451
0.84220147 4.5584459 -0.89648205
1.0092714 4.5674267 -0.92856336
0.85990113 4.5828753 -0.86204726
1.027528 4.590416 -0.89403963
0.85393584 4.563303 -0.89792299
1.01948 4.5660448 -0.92911971
0.86869764 4.577229 -0.86185491
1.0336376 4.5768194 -0.89265978
0.86294711 4.5586271 -0.89784771
1.0303305 4.5664959 -0.92999434
0.88138098 4.584856 -0.86362946
1.0438886 4.5753646 -0.89319658
0.87612355 4.5681472 -0.90005159
1.0424893 4.570641 -0.9315052
0.8918609 4.5848427 -0.86428261
1.0538143 4.5729418 -0.89358544
0.88598359 4.5662498 -0.90043402
1.0540304 4.5728774 -0.93270004
0.90035093 4.5781589 -0.86395121
1.0637352 4.570487 -0.89397597
0.89612466 4.5652666 -0.90096807
1.0636176 4.569489 -0.93294263
0.91025019 4.5761876 -0.86432409
1.0736518 4.5680022 -0.8943671
0.91115963 4.5803261 -0.90409148
1.0741915 4.5688591 -0.93366277
0.9227671 4.5827026 -0.8659637
1.087926 4.5775809 -0.89667845
0.91961211 4.5735946 -0.90371561
1.0841023 4.5663376 -0.93406558
0.93739027 4.5957885 -0.86859107
1.0982075 4.5759492 -0.89721882
0.93096638 4.5762782 -0.90486276
1.1000896 4.580482 -0.93733478
0.94259989 4.5785899 -0.86671394
1.111902 4.5835662 -0.89923894
0.9399758 4.5713801 -0.90479159
1.1090182 4.5750999 -0.93726265
0.9558093 4.5868659 -0.8686403
1.1204919 4.5772209 -0.89904249
0.94896466 4.5664558 -0.90472078
1.1206738 4.5770965 -0.938465
0.96635467 4.586607 -0.86929923
1.1311358 4.5764103 -0.89973402
0.95853621 4.5633883 -0.90495563
1.1292344 4.5707307 -0.93823445
0.97690672 4.5863128 -0.86995912
1.1354883 4.5589123 -0.89776117
0.97023219 4.5668721 -0.90625989
1.1402112 4.570806 -0.93912005
0.98654145 4.5831623 -0.870197
1.1464453 4.5589733 -0.89860165
0.98103648 4.5674958 -0.90710676
1.1547191 4.5800672 -0.94160175
0.99803501 4.5856204 -0.87128276
1.1606127 4.5673018 -0.90077734
0.98936766 4.5605779 -0.90673316
1.1653914 4.5791335 -0.9423306
1.0089235 4.5861592 -0.87208796
1.1683934 4.5589809 -0.90028512
1.00237 4.5676961 -0.90865207
1.1735659 4.5717244 -0.94194281
1.0220448 4.5932274 -0.87388301
1.1833545 4.5690556 -0.90276062
1.0132102 4.5682106 -0.90950203
1.1871132 4.5780807 -0.94395196
1.0336192 4.5955586 -0.87497222
1.1951149 4.5707917 -0.90390277
1.0304478 4.5873928 -0.91341305
1.1996206 4.5816288 -0.94548273
1.0442502 4.5950427 -0.87563962
1.2098296 4.5798326 -0.9062351
1.034284 4.5672598 -0.91089976
1.2106969 4.5814629 -0.94637561
1.0542359 4.5926204 -0.87602448
1.0503563 4.5825977 -0.91420352
1.2206768 4.5785112 -0.94678974
1.0629032 4.586432 -0.87584263
1.0593196 4.5773554 -0.91413975
1.2336241 4.5828443 -0.94848478
1.0722048 4.5820861 -0.87594461
1.0702454 4.5776763 -0.91499662
1.2428641 4.5779948 -0.9485805
1.0814906 4.5777135 -0.87604797
1.0788486 4.5714493 -0.91478062
1.2551045 4.5804148 -0.94995797
1.0937942 4.5816889 -0.87742722
1.0891057 4.5698433 -0.91533113
1.2673727 4.5827885 -0.9513371
1.1081705 4.591198 -0.87966084
1.1003807 4.5709891 -0.91634381
1.2792832 4.5842085 -0.95255828
1.1229591 4.6015759 -0.88203824
1.1065432 4.5581889 -0.91505432
1.2865881 4.5746813 -0.95185399
1.1333293 4.599834 -0.88257086
1.1188458 4.5620494 -0.91652822
1.2985069 4.5760269 -0.95307708
1.1443951 4.5999122 -0.88338983
1.1325727 4.5695634 -0.91862047
1.3045791 4.5637364 -0.95189118
1.1439029 4.5705547 -0.91963661
1.3172848 4.566824 -0.95343721
1.1559567 4.5733528 -0.92096305
1.3296264 4.5689592 -0.95482302
1.1673262 4.5742621 -0.921983
1.3383975 4.5629239 -0.95476341
1.1797891 4.5778937 -0.92346489
1.3475479 4.5577669 -0.95486486
1.183242 4.5584917 -0.92109716
